ply
format ascii 1.0
element vertex 1115
property float x
property float y
property float z
property uchar red
property uchar green
property uchar blue
end_header
4.678362 -6.456141 -10.928656 122 123 107 
4.725146 -6.456141 -10.928656 121 122 106 
4.758018 -6.437318 -10.896793 122 123 107 
4.804665 -6.437318 -10.896793 122 123 107 
4.781609 -6.344828 -10.740231 122 123 105 
4.813754 -6.326648 -10.709455 122 123 105 
4.818182 -6.272727 -10.618182 121 123 102 
4.863636 -6.272727 -10.618182 121 123 102 
4.172414 -4.758621 -8.055173 120 122 101 
4.206897 -4.758621 -8.055173 121 123 102 
4.482759 -4.758621 -8.055173 120 123 102 
4.497854 -4.738197 -8.020601 120 123 102 
4.522484 -4.728051 -8.003427 120 123 102 
4.566524 -4.738197 -8.020601 120 123 102 
4.600858 -4.738197 -8.020601 121 124 103 
4.645161 -4.748387 -8.037849 121 124 103 
-0.531290 -2.840358 -4.773436 152 94 90 
-0.510204 -2.836735 -4.767347 169 111 107 
-0.490421 -2.840358 -4.773436 157 98 94 
2.437500 -8.687500 -14.600000 132 131 111 
2.500000 -8.687500 -14.600000 133 130 111 
2.562500 -8.687500 -14.600000 133 132 112 
2.625000 -8.687500 -14.600000 132 134 113 
2.687500 -8.687500 -14.600000 132 134 113 
2.750000 -8.687500 -14.600000 130 133 112 
2.812500 -8.687500 -14.600000 130 133 112 
2.875000 -8.687500 -14.600000 130 133 112 
2.937500 -8.687500 -14.600000 130 133 112 
3.000000 -8.687500 -14.600000 129 132 111 
2.947368 -8.360902 -14.051128 128 131 110 
2.877698 -8.000000 -13.444605 128 130 109 
2.833333 -7.722222 -12.977778 128 130 109 
2.859107 -7.642612 -12.843987 127 129 108 
2.884354 -7.564626 -12.712926 127 129 108 
2.938776 -7.564626 -12.712926 128 130 109 
2.993197 -7.564626 -12.712926 127 129 108 
4.605166 -8.206642 -13.791883 126 128 107 
4.664207 -8.206642 -13.791883 125 127 106 
4.723247 -8.206642 -13.791883 125 127 106 
4.764706 -8.176471 -13.741177 126 128 107 
4.788321 -8.116788 -13.640876 124 126 105 
4.829091 -8.087273 -13.591273 122 124 103 
4.765957 -7.886525 -13.253901 121 123 102 
4.893471 -7.642612 -12.843987 123 125 104 
4.489552 -6.638806 -11.157015 124 126 105 
4.510386 -6.599407 -11.090801 124 126 105 
4.544379 -6.579882 -11.057988 123 125 104 
4.578171 -6.560472 -11.025369 123 125 104 
4.625369 -6.560472 -11.025369 123 124 106 
4.645161 -6.521994 -10.960704 122 123 105 
4.692082 -6.521994 -10.960704 122 123 105 
4.725146 -6.502924 -10.928656 122 123 105 
4.771930 -6.502924 -10.928656 123 124 108 
4.804665 -6.483965 -10.896793 122 123 105 
4.781609 -6.390805 -10.740231 122 123 105 
4.813754 -6.372493 -10.709455 122 123 105 
4.818182 -6.318182 -10.618182 122 124 103 
4.863636 -6.318182 -10.618182 122 124 103 
4.482759 -4.793103 -8.055173 121 124 103 
4.507527 -4.782796 -8.037849 120 123 102 
4.541935 -4.782796 -8.037849 120 123 102 
4.576344 -4.782796 -8.037849 119 122 101 
4.610753 -4.782796 -8.037849 119 122 101 
4.655172 -4.793103 -8.055173 119 122 101 
-0.530612 -2.857143 -4.767347 160 101 97 
-0.510204 -2.857143 -4.767347 164 105 101 
-0.489796 -2.857143 -4.767347 142 83 77 
2.437500 -8.750000 -14.600000 130 132 111 
2.500000 -8.750000 -14.600000 133 132 112 
2.562500 -8.750000 -14.600000 131 133 112 
2.625000 -8.750000 -14.600000 131 133 112 
2.687500 -8.750000 -14.600000 131 133 112 
2.750000 -8.750000 -14.600000 131 133 112 
2.812500 -8.750000 -14.600000 131 133 112 
2.875000 -8.750000 -14.600000 130 132 111 
2.937500 -8.750000 -14.600000 129 131 110 
3.000000 -8.750000 -14.600000 128 130 109 
2.947368 -8.421053 -14.051128 128 130 109 
2.867383 -8.028674 -13.396416 129 131 110 
2.823529 -7.750865 -12.932873 129 131 110 
2.849315 -7.671233 -12.800000 129 131 110 
2.884354 -7.619048 -12.712926 129 131 110 
2.928813 -7.593220 -12.669831 129 131 110 
2.953020 -7.516778 -12.542282 128 130 109 
3.058021 -7.645051 -12.756314 126 128 107 
3.462295 -7.344262 -12.254427 124 126 105 
3.503268 -7.320261 -12.214379 125 127 106 
3.816993 -7.320261 -12.214379 124 126 105 
3.844156 -7.272727 -12.135065 124 126 105 
3.896104 -7.272727 -12.135065 124 126 105 
3.973856 -7.320261 -12.214379 125 127 106 
4.052631 -7.368421 -12.294737 125 127 106 
4.118812 -7.392739 -12.335314 126 128 107 
4.664207 -8.265682 -13.791883 124 126 105 
4.829091 -8.145454 -13.591273 122 124 103 
4.732394 -7.887324 -13.160563 123 125 104 
4.771930 -7.859649 -13.114387 125 127 106 
4.648649 -7.567567 -12.627028 125 127 106 
4.594059 -7.392739 -12.335314 125 127 106 
4.631579 -7.368421 -12.294737 125 127 106 
4.684210 -7.368421 -12.294737 125 127 106 
4.768212 -7.417219 -12.376160 125 127 106 
4.489552 -6.686567 -11.157015 122 124 103 
4.510386 -6.646884 -11.090801 124 126 105 
4.557864 -6.646884 -11.090801 125 127 106 
4.591716 -6.627219 -11.057988 125 127 106 
4.625369 -6.607670 -11.025369 123 125 104 
4.658823 -6.588235 -10.992942 121 123 102 
4.692082 -6.568915 -10.960704 121 123 102 
4.725146 -6.549707 -10.928656 122 124 103 
4.771930 -6.549707 -10.928656 121 122 104 
4.763006 -6.473989 -10.802313 121 123 102 
4.767908 -6.418338 -10.709455 122 124 103 
4.786325 -6.381766 -10.648434 123 125 104 
4.818182 -6.363636 -10.618182 123 125 104 
4.849858 -6.345609 -10.588102 123 125 104 
4.517241 -4.827586 -8.055173 120 123 102 
4.551724 -4.827586 -8.055173 119 122 101 
4.586207 -4.827586 -8.055173 118 121 100 
4.620690 -4.827586 -8.055173 119 122 101 
-0.530612 -2.877551 -4.767347 149 90 86 
-0.510204 -2.877551 -4.767347 119 60 56 
-0.489796 -2.877551 -4.767347 149 90 84 
-0.469388 -2.877551 -4.767347 185 126 120 
2.437500 -8.812500 -14.600000 131 133 112 
2.500000 -8.812500 -14.600000 133 135 114 
2.562500 -8.812500 -14.600000 132 134 113 
2.625000 -8.812500 -14.600000 130 132 111 
2.687500 -8.812500 -14.600000 129 131 110 
2.750000 -8.812500 -14.600000 129 131 110 
2.812500 -8.812500 -14.600000 130 132 111 
2.875000 -8.812500 -14.600000 131 133 112 
2.937500 -8.812500 -14.600000 130 132 111 
3.000000 -8.812500 -14.600000 129 131 110 
2.947368 -8.481203 -14.051128 128 130 109 
2.867383 -8.086021 -13.396416 128 130 109 
2.823529 -7.806228 -12.932873 128 130 109 
2.829932 -7.673470 -12.712926 128 130 109 
2.874576 -7.647458 -12.669831 128 130 109 
2.899329 -7.570470 -12.542282 129 131 110 
2.943144 -7.545150 -12.500335 129 131 110 
3.006711 -7.570470 -12.542282 128 130 109 
3.409836 -7.396721 -12.254427 124 126 105 
3.439739 -7.348534 -12.174593 123 125 104 
3.491857 -7.348534 -12.174593 125 127 106 
3.555556 -7.372549 -12.214379 127 129 108 
3.607843 -7.372549 -12.214379 127 129 108 
3.660131 -7.372549 -12.214379 126 128 107 
3.712418 -7.372549 -12.214379 126 128 107 
3.764706 -7.372549 -12.214379 125 127 106 
3.792208 -7.324676 -12.135065 125 127 106 
3.782748 -7.207668 -11.941215 124 126 105 
3.833866 -7.207668 -11.941215 123 125 104 
3.909968 -7.254019 -12.018006 123 125 104 
3.987055 -7.300971 -12.095793 125 127 106 
4.038835 -7.300971 -12.095793 126 128 107 
4.117264 -7.348534 -12.174593 124 126 105 
4.732394 -7.943662 -13.160563 122 124 103 
4.594594 -7.621622 -12.627028 124 126 105 
4.482085 -7.348534 -12.174593 123 125 104 
4.519481 -7.324676 -12.135065 124 126 105 
4.556634 -7.300971 -12.095793 124 126 105 
4.593548 -7.277420 -12.056774 124 126 105 
4.556962 -7.139241 -11.827848 124 126 105 
4.607595 -7.139241 -11.827848 124 126 105 
4.557276 -6.984520 -11.571517 123 125 104 
4.495468 -6.815710 -11.291843 123 125 104 
4.489552 -6.734328 -11.157015 123 125 104 
4.523809 -6.714286 -11.123810 124 126 105 
4.557864 -6.694362 -11.090801 124 126 105 
4.591716 -6.674556 -11.057988 124 126 105 
4.611765 -6.635294 -10.992942 122 124 103 
4.658823 -6.635294 -10.992942 122 124 103 
4.692082 -6.615836 -10.960704 122 124 103 
4.711370 -6.577260 -10.896793 123 125 104 
4.730435 -6.539130 -10.833624 122 124 103 
4.749279 -6.501441 -10.771182 122 124 103 
4.754286 -6.445714 -10.678858 122 124 103 
4.772727 -6.409091 -10.618182 122 124 103 
4.790960 -6.372881 -10.558192 122 124 103 
4.808989 -6.337079 -10.498877 122 124 103 
4.840336 -6.319328 -10.469468 122 124 103 
-0.530612 -2.897959 -4.767347 162 103 99 
-0.510204 -2.897959 -4.767347 161 102 98 
-0.489796 -2.897959 -4.767347 153 92 89 
-0.469388 -2.897959 -4.767347 147 86 83 
2.437500 -8.875000 -14.600000 132 134 113 
2.500000 -8.875000 -14.600000 133 135 114 
2.562500 -8.875000 -14.600000 132 134 113 
2.625000 -8.875000 -14.600000 129 131 110 
2.687500 -8.875000 -14.600000 127 129 108 
2.750000 -8.875000 -14.600000 128 130 109 
2.812500 -8.875000 -14.600000 129 131 110 
2.875000 -8.875000 -14.600000 131 133 112 
2.937500 -8.875000 -14.600000 130 132 111 
3.000000 -8.875000 -14.600000 129 131 110 
2.958491 -8.573585 -14.104152 128 130 109 
2.909091 -8.261818 -13.591273 127 129 108 
2.833333 -7.888889 -12.977778 126 128 107 
2.839591 -7.754266 -12.756314 127 129 108 
2.874576 -7.701695 -12.669831 127 129 108 
2.899329 -7.624161 -12.542282 128 130 109 
2.943144 -7.598662 -12.500335 129 131 110 
3.006711 -7.624161 -12.542282 129 131 110 
3.421053 -7.473684 -12.294737 124 126 105 
3.462295 -7.449180 -12.254427 124 126 105 
3.503268 -7.424837 -12.214379 125 127 106 
3.555556 -7.424837 -12.214379 126 128 107 
3.607843 -7.424837 -12.214379 127 129 108 
3.660131 -7.424837 -12.214379 126 128 107 
3.712418 -7.424837 -12.214379 126 128 107 
3.740260 -7.376623 -12.135065 125 127 106 
3.755627 -7.305466 -12.018006 125 127 106 
3.782748 -7.258786 -11.941215 124 126 105 
3.809524 -7.212698 -11.865397 123 125 104 
3.884984 -7.258786 -11.941215 123 125 104 
3.961415 -7.305466 -12.018006 124 126 105 
4.025806 -7.329032 -12.056774 125 127 106 
4.077419 -7.329032 -12.056774 125 127 106 
4.142395 -7.352751 -12.095793 125 127 106 
4.221498 -7.400651 -12.174593 126 128 107 
4.473684 -7.473684 -12.294737 122 124 103 
4.396166 -7.258786 -11.941215 122 124 103 
4.447284 -7.258786 -11.941215 122 124 103 
4.469841 -7.212698 -11.865397 123 125 104 
4.450000 -7.100000 -11.680000 123 125 104 
4.458204 -7.034056 -11.571517 123 125 104 
4.466258 -6.969325 -11.465031 123 125 104 
4.460606 -6.884849 -11.326061 123 125 104 
4.481928 -6.843373 -11.257832 123 125 104 
4.489552 -6.782090 -11.157015 123 125 104 
4.523809 -6.761905 -11.123810 123 125 104 
4.557864 -6.741840 -11.090801 123 125 104 
4.564706 -6.682353 -10.992942 122 124 103 
4.611765 -6.682353 -10.992942 122 124 103 
4.645161 -6.662756 -10.960704 122 124 103 
4.664723 -6.623907 -10.896793 123 125 104 
4.684058 -6.585507 -10.833624 124 126 105 
4.703170 -6.547550 -10.771182 122 124 103 
4.735632 -6.528736 -10.740231 122 124 103 
4.727273 -6.454545 -10.618182 122 124 103 
4.772727 -6.454545 -10.618182 122 124 103 
4.790960 -6.418079 -10.558192 122 124 103 
4.795518 -6.364146 -10.469468 122 124 103 
4.840336 -6.364146 -10.469468 121 123 102 
4.885154 -6.364146 -10.469468 121 123 102 
-0.530612 -2.918367 -4.767347 141 82 78 
-0.510204 -2.918367 -4.767347 169 110 106 
-0.489796 -2.918367 -4.767347 176 115 112 
-0.469388 -2.918367 -4.767347 180 119 116 
2.437500 -8.937500 -14.600000 131 133 112 
2.500000 -8.937500 -14.600000 132 134 113 
2.562500 -8.937500 -14.600000 131 133 112 
2.625000 -8.937500 -14.600000 129 131 110 
2.687500 -8.937500 -14.600000 128 130 109 
2.750000 -8.937500 -14.600000 129 131 110 
2.812500 -8.937500 -14.600000 130 132 111 
2.875000 -8.937500 -14.600000 130 132 111 
2.937500 -8.937500 -14.600000 130 132 111 
3.000000 -8.937500 -14.600000 129 131 110 
2.958491 -8.633963 -14.104152 128 130 109 
2.996255 -8.569288 -13.998502 126 128 107 
2.935252 -8.230216 -13.444605 126 128 107 
2.878893 -7.916955 -12.932873 126 128 107 
2.894198 -7.808874 -12.756314 127 129 108 
2.918919 -7.729730 -12.627028 127 129 108 
2.972973 -7.729730 -12.627028 127 129 108 
3.037288 -7.755932 -12.669831 127 129 108 
3.421053 -7.526316 -12.294737 126 128 107 
3.473684 -7.526316 -12.294737 125 127 106 
3.526316 -7.526316 -12.294737 125 127 106 
3.578947 -7.526316 -12.294737 125 127 106 
3.631579 -7.526316 -12.294737 125 127 106 
3.684211 -7.526316 -12.294737 124 126 105 
3.724590 -7.501639 -12.254427 123 125 104 
3.764706 -7.477124 -12.214379 124 126 105 
3.792208 -7.428571 -12.135065 124 126 105 
3.807074 -7.356913 -12.018006 124 126 105 
3.846154 -7.333333 -11.979487 124 126 105 
3.909968 -7.356913 -12.018006 123 125 104 
3.961415 -7.356913 -12.018006 124 126 105 
4.025806 -7.380645 -12.056774 124 126 105 
4.077419 -7.380645 -12.056774 124 126 105 
4.142395 -7.404531 -12.095793 125 127 106 
4.221498 -7.452769 -12.174593 125 127 106 
4.273616 -7.452769 -12.174593 125 127 106 
4.396166 -7.309904 -11.941215 122 124 103 
4.405063 -7.240506 -11.827848 122 124 103 
4.400000 -7.150000 -11.680000 122 124 103 
4.408669 -7.083591 -11.571517 123 125 104 
4.417178 -7.018405 -11.465031 123 125 104 
4.439024 -6.975610 -11.395123 122 124 103 
4.433735 -6.891566 -11.257832 122 124 103 
4.455090 -6.850299 -11.190419 122 124 103 
4.476191 -6.809524 -11.123810 123 125 104 
4.523809 -6.809524 -11.123810 122 124 103 
4.544379 -6.769231 -11.057988 122 124 103 
4.564706 -6.729412 -10.992942 122 124 103 
4.598240 -6.709677 -10.960704 122 124 103 
4.631579 -6.690059 -10.928656 123 125 104 
4.664723 -6.670554 -10.896793 124 126 105 
4.657061 -6.593660 -10.771182 124 126 105 
4.703170 -6.593660 -10.771182 122 124 103 
4.722063 -6.555874 -10.709455 122 124 103 
4.727273 -6.500000 -10.618182 122 124 103 
4.759207 -6.481586 -10.588102 121 123 102 
4.790960 -6.463277 -10.558192 121 123 102 
4.795518 -6.408964 -10.469468 121 123 102 
4.826816 -6.391061 -10.440224 121 123 102 
4.871509 -6.391061 -10.440224 121 123 102 
4.929972 -6.408964 -10.469468 123 125 104 
-0.530612 -2.938776 -4.767347 167 107 106 
-0.510204 -2.938776 -4.767347 169 109 108 
-0.489172 -2.935032 -4.761274 147 86 85 
-0.469388 -2.938776 -4.767347 155 94 93 
-0.448980 -2.938776 -4.767347 179 120 116 
2.437500 -9.000000 -14.600000 130 132 111 
2.500000 -9.000000 -14.600000 130 132 111 
2.562500 -9.000000 -14.600000 130 132 111 
2.625000 -9.000000 -14.600000 129 131 110 
2.687500 -9.000000 -14.600000 129 131 110 
2.750000 -9.000000 -14.600000 130 132 111 
2.812500 -9.000000 -14.600000 130 132 111 
2.875000 -9.000000 -14.600000 128 130 109 
2.937500 -9.000000 -14.600000 128 130 109 
3.000000 -9.000000 -14.600000 128 130 109 
2.936330 -8.629213 -13.998502 128 130 109 
2.985075 -8.597015 -13.946269 127 129 108 
2.935252 -8.287769 -13.444605 126 128 107 
2.878893 -7.972318 -12.932873 127 129 108 
2.894198 -7.863481 -12.756314 128 130 109 
2.928813 -7.810170 -12.669831 126 128 107 
2.983051 -7.810170 -12.669831 126 128 107 
3.027027 -7.783784 -12.627028 126 128 107 
3.421053 -7.578948 -12.294737 125 127 106 
3.473684 -7.578948 -12.294737 125 127 106 
3.526316 -7.578948 -12.294737 125 127 106 
3.578947 -7.578948 -12.294737 125 127 106 
3.631579 -7.578948 -12.294737 125 127 106 
3.684211 -7.578948 -12.294737 124 126 105 
3.736842 -7.578948 -12.294737 122 124 103 
3.764706 -7.529412 -12.214379 122 124 103 
3.804560 -7.504886 -12.174593 124 126 105 
3.844156 -7.480519 -12.135065 125 127 106 
3.896104 -7.480519 -12.135065 125 127 106 
3.948052 -7.480519 -12.135065 124 126 105 
4.013029 -7.504886 -12.174593 123 125 104 
4.065146 -7.504886 -12.174593 123 125 104 
4.117264 -7.504886 -12.174593 123 125 104 
4.169381 -7.504886 -12.174593 123 125 104 
4.221498 -7.504886 -12.174593 123 125 104 
4.273616 -7.504886 -12.174593 124 126 105 
4.325733 -7.504886 -12.174593 124 126 105 
4.377850 -7.504886 -12.174593 124 126 105 
4.453074 -7.456311 -12.095793 123 125 104 
4.447284 -7.361022 -11.941215 123 125 104 
4.400000 -7.200000 -11.680000 123 125 104 
4.408669 -7.133127 -11.571517 123 125 104 
4.417178 -7.067485 -11.465031 123 125 104 
4.412121 -6.981818 -11.326061 122 124 103 
4.420421 -6.918919 -11.224025 122 124 103 
4.441791 -6.877612 -11.157015 122 124 103 
4.476191 -6.857143 -11.123810 122 124 103 
4.523809 -6.857143 -11.123810 122 124 103 
4.544379 -6.816568 -11.057988 122 124 103 
4.578171 -6.796460 -11.025369 122 124 103 
4.598240 -6.756598 -10.960704 123 125 104 
4.645161 -6.756598 -10.960704 123 125 104 
4.664723 -6.717201 -10.896793 124 126 105 
4.711370 -6.717201 -10.896793 124 126 105 
4.703170 -6.639770 -10.771182 122 124 103 
4.722063 -6.601719 -10.709455 122 124 103 
4.754286 -6.582857 -10.678858 121 123 102 
4.772727 -6.545455 -10.618182 121 123 102 
4.790960 -6.508474 -10.558192 121 123 102 
4.795518 -6.453782 -10.469468 121 123 102 
4.826816 -6.435754 -10.440224 121 123 102 
4.871509 -6.435754 -10.440224 121 123 102 
-0.530612 -2.959184 -4.767347 166 106 105 
-0.510204 -2.959184 -4.767347 155 95 94 
-0.489172 -2.955414 -4.761274 124 63 62 
-0.468790 -2.955414 -4.761274 121 60 59 
-0.448980 -2.959184 -4.767347 133 74 70 
-0.428571 -2.959184 -4.767347 152 93 89 
2.375000 -9.062500 -14.600000 132 134 113 
2.437500 -9.062500 -14.600000 131 133 112 
2.500000 -9.062500 -14.600000 130 132 111 
2.562500 -9.062500 -14.600000 129 131 110 
2.625000 -9.062500 -14.600000 129 131 110 
2.687500 -9.062500 -14.600000 129 131 110 
2.750000 -9.062500 -14.600000 129 131 110 
2.812500 -9.062500 -14.600000 129 131 110 
2.875000 -9.062500 -14.600000 127 129 108 
2.937500 -9.062500 -14.600000 128 130 109 
3.000000 -9.062500 -14.600000 128 130 109 
2.936330 -8.689138 -13.998502 128 130 109 
2.973978 -8.624536 -13.894424 128 130 109 
2.853147 -8.111888 -13.068532 127 129 108 
2.878893 -8.027681 -12.932873 127 129 108 
2.894198 -7.918089 -12.756314 127 129 108 
2.928813 -7.864407 -12.669831 126 128 107 
2.983051 -7.864407 -12.669831 125 127 106 
3.027027 -7.837838 -12.627028 125 127 106 
3.091525 -7.864407 -12.669831 126 128 107 
3.421053 -7.631579 -12.294737 123 125 104 
3.473684 -7.631579 -12.294737 124 126 105 
3.526316 -7.631579 -12.294737 125 127 106 
3.578947 -7.631579 -12.294737 126 128 107 
3.643564 -7.656765 -12.335314 127 129 108 
3.696370 -7.656765 -12.335314 125 127 106 
3.736842 -7.631579 -12.294737 123 125 104 
3.777049 -7.606557 -12.254427 122 124 103 
3.816993 -7.581699 -12.214379 124 126 105 
3.856678 -7.557003 -12.174593 126 128 107 
3.908795 -7.557003 -12.174593 126 128 107 
3.960912 -7.557003 -12.174593 123 125 104 
4.039344 -7.606557 -12.254427 122 124 103 
4.091803 -7.606557 -12.254427 122 124 103 
4.144262 -7.606557 -12.254427 123 125 104 
4.196721 -7.606557 -12.254427 122 124 103 
4.249180 -7.606557 -12.254427 122 124 103 
4.301640 -7.606557 -12.254427 122 124 103 
4.339869 -7.581699 -12.214379 123 125 104 
4.377850 -7.557003 -12.174593 124 126 105 
4.415585 -7.532467 -12.135065 124 126 105 
4.467533 -7.532467 -12.135065 123 125 104 
4.447284 -7.412140 -11.941215 123 125 104 
4.413793 -7.272727 -11.716615 123 125 104 
4.408669 -7.182662 -11.571517 123 125 104 
4.417178 -7.116564 -11.465031 123 125 104 
4.412121 -7.030303 -11.326061 123 125 104 
4.394030 -6.925373 -11.157015 122 124 103 
4.441791 -6.925373 -11.157015 122 124 103 
4.476191 -6.904762 -11.123810 121 123 102 
4.523809 -6.904762 -11.123810 122 124 103 
4.544379 -6.863905 -11.057988 123 125 104 
4.578171 -6.843658 -11.025369 123 125 104 
4.625369 -6.843658 -11.025369 123 125 104 
4.672566 -6.843658 -11.025369 123 125 104 
4.692082 -6.803519 -10.960704 123 125 104 
4.711370 -6.763848 -10.896793 123 125 104 
4.758018 -6.763848 -10.896793 121 123 102 
4.749279 -6.685879 -10.771182 121 123 102 
4.767908 -6.647564 -10.709455 121 123 102 
4.786325 -6.609686 -10.648434 121 123 102 
4.804533 -6.572238 -10.588102 121 123 102 
4.836158 -6.553672 -10.558192 121 123 102 
4.881356 -6.553672 -10.558192 121 123 102 
-0.530612 -2.979592 -4.767347 116 56 55 
-0.510204 -2.979592 -4.767347 212 152 151 
-0.489172 -2.975796 -4.761274 187 126 125 
-0.468790 -2.975796 -4.761274 142 81 80 
-0.448980 -2.979592 -4.767347 135 75 74 
-0.428571 -2.979592 -4.767347 143 83 82 
2.375000 -9.125000 -14.600000 133 135 114 
2.437500 -9.125000 -14.600000 132 134 113 
2.500000 -9.125000 -14.600000 130 132 111 
2.562500 -9.125000 -14.600000 129 131 110 
2.625000 -9.125000 -14.600000 128 130 109 
2.687500 -9.125000 -14.600000 128 130 109 
2.750000 -9.125000 -14.600000 128 130 109 
2.812500 -9.125000 -14.600000 129 131 110 
2.875000 -9.125000 -14.600000 128 130 109 
2.937500 -9.125000 -14.600000 128 130 109 
3.000000 -9.125000 -14.600000 128 130 109 
2.925373 -8.716418 -13.946269 129 131 110 
2.877698 -8.402878 -13.444605 128 130 109 
2.843206 -8.139373 -13.022997 128 130 109 
2.878893 -8.083045 -12.932873 127 129 108 
2.904109 -8.000000 -12.800000 126 128 107 
2.928813 -7.918644 -12.669831 126 128 107 
2.983051 -7.918644 -12.669831 126 128 107 
3.037288 -7.918644 -12.669831 127 129 108 
3.102041 -7.945578 -12.712926 127 129 108 
3.421053 -7.684210 -12.294737 123 125 104 
3.473684 -7.684210 -12.294737 124 126 105 
3.526316 -7.684210 -12.294737 125 127 106 
3.578947 -7.684210 -12.294737 125 127 106 
3.643564 -7.709571 -12.335314 126 128 107 
3.696370 -7.709571 -12.335314 125 127 106 
3.736842 -7.684210 -12.294737 123 125 104 
3.777049 -7.659017 -12.254427 123 125 104 
3.816993 -7.633987 -12.214379 124 126 105 
3.869281 -7.633987 -12.214379 126 128 107 
3.921569 -7.633987 -12.214379 125 127 106 
3.986885 -7.659017 -12.254427 123 125 104 
4.052631 -7.684210 -12.294737 121 123 102 
4.105263 -7.684210 -12.294737 123 125 104 
4.157895 -7.684210 -12.294737 123 125 104 
4.210526 -7.684210 -12.294737 123 125 104 
4.263158 -7.684210 -12.294737 121 123 102 
4.301640 -7.659017 -12.254427 121 123 102 
4.354098 -7.659017 -12.254427 122 124 103 
4.377850 -7.609120 -12.174593 123 125 104 
4.415585 -7.584415 -12.135065 122 124 103 
4.467533 -7.584415 -12.135065 123 125 104 
4.490323 -7.535484 -12.056774 123 125 104 
4.427673 -7.345912 -11.753459 123 125 104 
4.450000 -7.300000 -11.680000 123 125 104 
4.458204 -7.232198 -11.571517 123 125 104 
4.412121 -7.078788 -11.326061 123 125 104 
4.407186 -6.994012 -11.190419 123 125 104 
4.441791 -6.973135 -11.157015 122 124 103 
4.476191 -6.952381 -11.123810 122 124 103 
4.523809 -6.952381 -11.123810 123 125 104 
4.571429 -6.952381 -11.123810 124 126 105 
4.605341 -6.931751 -11.090801 123 125 104 
4.652819 -6.931751 -11.090801 122 124 103 
4.700297 -6.931751 -11.090801 122 124 103 
4.733728 -6.911242 -11.057988 122 124 103 
4.781065 -6.911242 -11.057988 123 125 104 
4.800000 -6.870588 -10.992942 121 123 102 
4.804665 -6.810496 -10.896793 121 123 102 
4.795389 -6.731988 -10.771182 121 123 102 
4.827586 -6.712644 -10.740231 121 123 102 
4.831909 -6.655271 -10.648434 121 123 102 
4.877493 -6.655271 -10.648434 121 123 102 
-0.530612 -3.000000 -4.767347 124 64 63 
-0.510204 -3.000000 -4.767347 151 91 90 
-0.489796 -3.000000 -4.767347 129 68 67 
-0.469388 -3.000000 -4.767347 159 98 97 
-0.448980 -3.000000 -4.767347 172 112 111 
-0.428571 -3.000000 -4.767347 126 66 65 
-0.408163 -3.000000 -4.767347 126 66 65 
2.375000 -9.187500 -14.600000 132 134 113 
2.437500 -9.187500 -14.600000 132 134 113 
2.500000 -9.187500 -14.600000 131 133 112 
2.562500 -9.187500 -14.600000 129 131 110 
2.625000 -9.187500 -14.600000 127 129 108 
2.687500 -9.187500 -14.600000 127 129 108 
2.750000 -9.187500 -14.600000 128 130 109 
2.812500 -9.187500 -14.600000 129 131 110 
2.875000 -9.187500 -14.600000 129 131 110 
2.937500 -9.187500 -14.600000 129 131 110 
3.000000 -9.187500 -14.600000 129 131 110 
2.914498 -8.743494 -13.894424 129 131 110 
2.836879 -8.340425 -13.253901 129 131 110 
2.833333 -8.166667 -12.977778 128 130 109 
2.859107 -8.082474 -12.843987 126 128 107 
2.904109 -8.054794 -12.800000 124 126 105 
2.938776 -8.000000 -12.712926 127 129 108 
2.993197 -8.000000 -12.712926 128 130 109 
3.037288 -7.972881 -12.669831 129 131 110 
3.091525 -7.972881 -12.669831 129 131 110 
3.156463 -8.000000 -12.712926 127 129 108 
3.421053 -7.736842 -12.294737 125 127 106 
3.473684 -7.736842 -12.294737 126 128 107 
3.526316 -7.736842 -12.294737 125 127 106 
3.578947 -7.736842 -12.294737 124 126 105 
3.643564 -7.762376 -12.335314 124 126 105 
3.696370 -7.762376 -12.335314 123 125 104 
3.724590 -7.711475 -12.254427 122 124 103 
3.777049 -7.711475 -12.254427 122 124 103 
3.816993 -7.686275 -12.214379 124 126 105 
3.856678 -7.661238 -12.174593 125 127 106 
3.921569 -7.686275 -12.214379 124 126 105 
3.986885 -7.711475 -12.254427 123 125 104 
4.052631 -7.736842 -12.294737 121 123 102 
4.105263 -7.736842 -12.294737 124 126 105 
4.157895 -7.736842 -12.294737 124 126 105 
4.210526 -7.736842 -12.294737 123 125 104 
4.263158 -7.736842 -12.294737 121 123 102 
4.301640 -7.711475 -12.254427 121 123 102 
4.354098 -7.711475 -12.254427 122 124 103 
4.377850 -7.661238 -12.174593 122 124 103 
4.415585 -7.636364 -12.135065 121 123 102 
4.467533 -7.636364 -12.135065 122 124 103 
4.504854 -7.611650 -12.095793 123 125 104 
4.427673 -7.396226 -11.753459 123 125 104 
4.463950 -7.373041 -11.716615 123 125 104 
4.458204 -7.281734 -11.571517 123 125 104 
4.412121 -7.127273 -11.326061 123 125 104 
4.420421 -7.063063 -11.224025 123 125 104 
4.441791 -7.020895 -11.157015 123 125 104 
4.476191 -7.000000 -11.123810 122 124 103 
4.523809 -7.000000 -11.123810 123 125 104 
4.571429 -7.000000 -11.123810 124 126 105 
4.619048 -7.000000 -11.123810 123 125 104 
4.666667 -7.000000 -11.123810 121 123 102 
4.714286 -7.000000 -11.123810 121 123 102 
4.761905 -7.000000 -11.123810 122 124 103 
4.809524 -7.000000 -11.123810 123 125 104 
4.842730 -6.979228 -11.090801 121 123 102 
4.861357 -6.938053 -11.025369 122 124 103 
4.865497 -6.877193 -10.928656 122 124 103 
4.897959 -6.857143 -10.896793 122 124 103 
4.887608 -6.778098 -10.771182 121 123 102 
4.933718 -6.778098 -10.771182 120 122 101 
-0.530612 -3.020408 -4.767347 153 93 93 
-0.510204 -3.020408 -4.767347 163 103 103 
-0.489796 -3.020408 -4.767347 139 78 77 
-0.469388 -3.020408 -4.767347 145 84 83 
-0.448980 -3.020408 -4.767347 131 71 70 
-0.428571 -3.020408 -4.767347 150 90 89 
-0.408163 -3.020408 -4.767347 152 92 91 
2.375000 -9.250000 -14.600000 130 132 111 
2.437500 -9.250000 -14.600000 130 132 111 
2.500000 -9.250000 -14.600000 130 132 111 
2.562500 -9.250000 -14.600000 130 132 111 
2.625000 -9.250000 -14.600000 131 133 112 
2.687500 -9.250000 -14.600000 130 132 111 
2.750000 -9.250000 -14.600000 129 131 110 
2.812500 -9.250000 -14.600000 128 130 109 
2.875000 -9.250000 -14.600000 127 129 108 
2.937500 -9.250000 -14.600000 128 130 109 
3.000000 -9.250000 -14.600000 129 131 110 
2.892989 -8.738008 -13.791883 128 130 109 
2.836879 -8.397163 -13.253901 127 129 108 
2.833333 -8.222222 -12.977778 126 128 107 
2.859107 -8.137457 -12.843987 126 128 107 
2.904109 -8.109589 -12.800000 126 128 107 
2.948806 -8.081911 -12.756314 127 129 108 
3.003413 -8.081911 -12.756314 125 127 106 
3.047619 -8.054421 -12.712926 124 126 105 
3.091525 -8.027119 -12.669831 125 127 106 
3.145763 -8.027119 -12.669831 126 128 107 
3.232877 -8.109589 -12.800000 126 128 107 
3.310345 -8.165517 -12.888276 125 127 106 
3.420690 -8.165517 -12.888276 125 127 106 
3.424749 -7.919733 -12.500335 124 126 105 
3.443709 -7.841060 -12.376160 123 125 104 
3.473684 -7.789474 -12.294737 122 124 103 
3.526316 -7.789474 -12.294737 122 124 103 
3.578947 -7.789474 -12.294737 123 125 104 
3.643564 -7.815182 -12.335314 124 126 105 
3.696370 -7.815182 -12.335314 125 127 106 
3.724590 -7.763935 -12.254427 124 126 105 
3.764706 -7.738562 -12.214379 123 125 104 
3.804560 -7.713355 -12.174593 123 125 104 
3.856678 -7.713355 -12.174593 123 125 104 
3.908795 -7.713355 -12.174593 123 125 104 
3.973856 -7.738562 -12.214379 124 126 105 
4.039344 -7.763935 -12.254427 124 126 105 
4.091803 -7.763935 -12.254427 124 126 105 
4.144262 -7.763935 -12.254427 123 125 104 
4.196721 -7.763935 -12.254427 123 125 104 
4.249180 -7.763935 -12.254427 123 125 104 
4.301640 -7.763935 -12.254427 124 126 105 
4.325733 -7.713355 -12.174593 124 126 105 
4.377850 -7.713355 -12.174593 123 125 104 
4.429967 -7.713355 -12.174593 122 124 103 
4.467533 -7.688312 -12.135065 121 123 102 
4.490323 -7.638710 -12.056774 120 122 101 
4.427673 -7.446541 -11.753459 123 125 104 
4.436137 -7.376947 -11.643614 122 124 103 
4.458204 -7.331269 -11.571517 123 125 104 
4.412121 -7.175757 -11.326061 127 129 108 
4.420421 -7.111111 -11.224025 123 125 104 
4.455090 -7.089820 -11.190419 123 125 104 
4.476191 -7.047619 -11.123810 121 123 102 
4.523809 -7.047619 -11.123810 122 124 103 
4.571429 -7.047619 -11.123810 122 124 103 
4.619048 -7.047619 -11.123810 122 124 103 
4.666667 -7.047619 -11.123810 122 124 103 
4.714286 -7.047619 -11.123810 121 123 102 
4.761905 -7.047619 -11.123810 122 124 103 
4.809524 -7.047619 -11.123810 122 124 103 
4.857143 -7.047619 -11.123810 121 123 102 
4.890208 -7.026706 -11.090801 121 123 102 
4.908555 -6.985251 -11.025369 120 122 101 
4.941176 -6.964706 -10.992942 121 123 102 
4.959064 -6.923976 -10.928656 121 123 102 
5.020528 -6.944282 -10.960704 121 123 102 
-0.530612 -3.040816 -4.767347 152 92 92 
-0.510204 -3.040816 -4.767347 155 95 95 
-0.489796 -3.040816 -4.767347 236 175 174 
-0.469388 -3.040816 -4.767347 182 121 120 
-0.448980 -3.040816 -4.767347 119 59 58 
-0.428571 -3.040816 -4.767347 116 56 55 
-0.408163 -3.040816 -4.767347 149 89 88 
2.375000 -9.312500 -14.600000 129 131 110 
2.437500 -9.312500 -14.600000 129 131 110 
2.500000 -9.312500 -14.600000 130 132 111 
2.562500 -9.312500 -14.600000 131 133 112 
2.625000 -9.312500 -14.600000 132 134 113 
2.687500 -9.312500 -14.600000 131 133 112 
2.750000 -9.312500 -14.600000 129 131 110 
2.812500 -9.312500 -14.600000 127 129 108 
2.875000 -9.312500 -14.600000 129 131 110 
2.937500 -9.312500 -14.600000 129 131 110 
3.000000 -9.312500 -14.600000 128 130 109 
2.903704 -8.829630 -13.842963 128 130 109 
2.836879 -8.453900 -13.253901 127 129 108 
2.843206 -8.306621 -13.022997 127 129 108 
2.878893 -8.249135 -12.932873 127 129 108 
2.914089 -8.192440 -12.843987 127 129 108 
2.948806 -8.136518 -12.756314 127 129 108 
3.003413 -8.136518 -12.756314 127 129 108 
3.047619 -8.108844 -12.712926 126 128 107 
3.091525 -8.081356 -12.669831 126 128 107 
3.145763 -8.081356 -12.669831 127 129 108 
3.232877 -8.164384 -12.800000 126 128 107 
3.310345 -8.220690 -12.888276 125 127 106 
3.377163 -8.249135 -12.932873 124 126 105 
3.397260 -8.164384 -12.800000 124 126 105 
3.452055 -8.164384 -12.800000 124 126 105 
3.424749 -7.973244 -12.500335 124 126 105 
3.455149 -7.920266 -12.417276 123 125 104 
3.485148 -7.867987 -12.335314 123 125 104 
3.526316 -7.842105 -12.294737 123 125 104 
3.590759 -7.867987 -12.335314 123 125 104 
3.631579 -7.842105 -12.294737 124 126 105 
3.684211 -7.842105 -12.294737 124 126 105 
3.712418 -7.790850 -12.214379 124 126 105 
3.740260 -7.740260 -12.135065 123 125 104 
3.792208 -7.740260 -12.135065 123 125 104 
3.844156 -7.740260 -12.135065 123 125 104 
3.896104 -7.740260 -12.135065 123 125 104 
3.948052 -7.740260 -12.135065 123 125 104 
4.026144 -7.790850 -12.214379 123 125 104 
4.078432 -7.790850 -12.214379 124 126 105 
4.117264 -7.765472 -12.174593 123 125 104 
4.169381 -7.765472 -12.174593 122 124 103 
4.221498 -7.765472 -12.174593 122 124 103 
4.245955 -7.715210 -12.095793 123 125 104 
4.297735 -7.715210 -12.095793 123 125 104 
4.363636 -7.740260 -12.135065 123 125 104 
4.415585 -7.740260 -12.135065 123 125 104 
4.453074 -7.715210 -12.095793 121 123 102 
4.377358 -7.496855 -11.753459 120 122 101 
4.386293 -7.426791 -11.643614 123 125 104 
4.408669 -7.380805 -11.571517 121 123 102 
4.430769 -7.335385 -11.500308 123 125 104 
4.398791 -7.202417 -11.291843 126 128 107 
4.407186 -7.137724 -11.190419 123 125 104 
4.441791 -7.116418 -11.157015 123 125 104 
4.476191 -7.095238 -11.123810 122 124 103 
4.523809 -7.095238 -11.123810 122 124 103 
4.571429 -7.095238 -11.123810 122 124 103 
4.619048 -7.095238 -11.123810 122 124 103 
4.666667 -7.095238 -11.123810 121 123 102 
4.714286 -7.095238 -11.123810 121 123 102 
4.761905 -7.095238 -11.123810 122 124 103 
4.823881 -7.116418 -11.157015 122 124 103 
4.857143 -7.095238 -11.123810 122 124 103 
4.904762 -7.095238 -11.123810 121 123 102 
4.937685 -7.074184 -11.090801 120 122 101 
4.955752 -7.032448 -11.025369 121 123 102 
4.988235 -7.011765 -10.992942 121 123 102 
5.035294 -7.011765 -10.992942 121 123 102 
-0.530612 -3.061224 -4.767347 127 67 67 
-0.510204 -3.061224 -4.767347 146 86 86 
-0.489796 -3.061224 -4.767347 122 62 61 
-0.469388 -3.061224 -4.767347 125 65 64 
-0.448980 -3.061224 -4.767347 172 112 111 
-0.428571 -3.061224 -4.767347 145 85 84 
-0.408163 -3.061224 -4.767347 150 92 88 
-0.387755 -3.061224 -4.767347 159 101 97 
2.375000 -9.375000 -14.600000 128 130 109 
2.437500 -9.375000 -14.600000 128 130 109 
2.500000 -9.375000 -14.600000 129 131 110 
2.562500 -9.375000 -14.600000 130 132 111 
2.625000 -9.375000 -14.600000 132 134 113 
2.687500 -9.375000 -14.600000 132 134 113 
2.750000 -9.375000 -14.600000 130 132 111 
2.812500 -9.375000 -14.600000 127 129 108 
2.875000 -9.375000 -14.600000 130 132 111 
2.937500 -9.375000 -14.600000 129 131 110 
3.000000 -9.375000 -14.600000 128 130 109 
3.062500 -9.375000 -14.600000 127 129 108 
2.962963 -8.888889 -13.842963 127 129 108 
2.863158 -8.421053 -13.114387 127 129 108 
2.898955 -8.362370 -13.022997 127 129 108 
2.944444 -8.333333 -12.977778 127 129 108 
2.989619 -8.304499 -12.932873 127 129 108 
3.044983 -8.304499 -12.932873 127 129 108 
3.089655 -8.275862 -12.888276 127 129 108 
3.134021 -8.247422 -12.843987 127 129 108 
3.200000 -8.275862 -12.888276 126 128 107 
3.255172 -8.275862 -12.888276 126 128 107 
3.356643 -8.391608 -13.068532 125 127 106 
3.377163 -8.304499 -12.932873 125 127 106 
3.420690 -8.275862 -12.888276 125 127 106 
3.416949 -8.135593 -12.669831 124 126 105 
3.447811 -8.080808 -12.584512 124 126 105 
3.455149 -7.973422 -12.417276 124 126 105 
3.496689 -7.947020 -12.376160 124 126 105 
3.537954 -7.920792 -12.335314 124 126 105 
3.578947 -7.894737 -12.294737 123 125 104 
3.631579 -7.894737 -12.294737 123 125 104 
3.684211 -7.894737 -12.294737 123 125 104 
3.688312 -7.792208 -12.135065 123 125 104 
3.728155 -7.766990 -12.095793 123 125 104 
3.767742 -7.741935 -12.056774 123 125 104 
3.819355 -7.741935 -12.056774 123 125 104 
3.870968 -7.741935 -12.056774 123 125 104 
3.935275 -7.766990 -12.095793 122 124 103 
4.000000 -7.792208 -12.135065 122 124 103 
4.051948 -7.792208 -12.135065 123 125 104 
4.090615 -7.766990 -12.095793 122 124 103 
4.142395 -7.766990 -12.095793 122 124 103 
4.180645 -7.741935 -12.056774 121 123 102 
4.232258 -7.741935 -12.056774 122 124 103 
4.215873 -7.619048 -11.865397 122 124 103 
4.239748 -7.570978 -11.790537 123 125 104 
4.290221 -7.570978 -11.790537 123 125 104 
4.340694 -7.570978 -11.790537 122 124 103 
4.336449 -7.476635 -11.643614 121 123 102 
4.386293 -7.476635 -11.643614 122 124 103 
4.368098 -7.361963 -11.465031 121 123 102 
4.363636 -7.272727 -11.326061 122 124 103 
4.385542 -7.228916 -11.257832 124 126 105 
4.394030 -7.164179 -11.157015 122 124 103 
4.428571 -7.142857 -11.123810 122 124 103 
4.476191 -7.142857 -11.123810 122 124 103 
4.523809 -7.142857 -11.123810 122 124 103 
4.571429 -7.142857 -11.123810 122 124 103 
4.619048 -7.142857 -11.123810 122 124 103 
4.666667 -7.142857 -11.123810 121 123 102 
4.714286 -7.142857 -11.123810 122 124 103 
4.776119 -7.164179 -11.157015 122 124 103 
4.823881 -7.164179 -11.157015 123 125 104 
4.857143 -7.142857 -11.123810 122 124 103 
4.904762 -7.142857 -11.123810 121 123 102 
4.937685 -7.121662 -11.090801 121 123 102 
4.970414 -7.100592 -11.057988 121 123 102 
5.002950 -7.079646 -11.025369 121 123 102 
5.050148 -7.079646 -11.025369 121 123 102 
-0.510856 -3.085568 -4.773436 155 95 95 
-0.489796 -3.081633 -4.767347 125 65 64 
-0.469388 -3.081633 -4.767347 129 69 68 
-0.448980 -3.081633 -4.767347 167 107 106 
-0.428571 -3.081633 -4.767347 155 97 95 
-0.408163 -3.081633 -4.767347 158 100 96 
-0.387755 -3.081633 -4.767347 180 125 120 
2.437500 -9.437500 -14.600000 127 129 108 
2.500000 -9.437500 -14.600000 127 129 108 
2.562500 -9.437500 -14.600000 128 130 109 
2.625000 -9.437500 -14.600000 130 132 111 
2.687500 -9.437500 -14.600000 131 133 112 
2.750000 -9.437500 -14.600000 130 132 111 
2.812500 -9.437500 -14.600000 129 131 110 
2.875000 -9.437500 -14.600000 130 132 111 
2.937500 -9.437500 -14.600000 129 131 110 
3.000000 -9.437500 -14.600000 128 130 109 
3.062500 -9.437500 -14.600000 127 129 108 
2.973978 -8.981413 -13.894424 127 129 108 
2.919298 -8.477193 -13.114387 127 129 108 
2.954704 -8.418118 -13.022997 126 128 107 
3.010453 -8.418118 -13.022997 126 128 107 
3.055556 -8.388889 -12.977778 126 128 107 
3.111111 -8.388889 -12.977778 126 128 107 
3.166667 -8.388889 -12.977778 126 128 107 
3.222222 -8.388889 -12.977778 125 127 106 
3.432526 -8.359861 -12.932873 127 129 108 
3.405406 -8.162162 -12.627028 126 128 107 
3.436242 -8.107383 -12.542282 125 127 106 
3.443709 -8.000000 -12.376160 125 127 106 
3.485148 -7.973598 -12.335314 125 127 106 
3.526316 -7.947369 -12.294737 124 126 105 
3.578947 -7.947369 -12.294737 123 125 104 
3.631579 -7.947369 -12.294737 122 124 103 
3.672131 -7.921311 -12.254427 122 124 103 
3.676375 -7.818770 -12.095793 122 124 103 
3.716129 -7.793549 -12.056774 123 125 104 
3.755627 -7.768489 -12.018006 123 125 104 
3.794872 -7.743590 -11.979487 123 125 104 
3.858521 -7.768489 -12.018006 122 124 103 
3.909968 -7.768489 -12.018006 121 123 102 
3.974194 -7.793549 -12.056774 121 123 102 
4.012862 -7.768489 -12.018006 121 123 102 
4.051282 -7.743590 -11.979487 121 123 102 
4.076433 -7.694268 -11.903185 121 123 102 
4.114286 -7.669841 -11.865397 121 123 102 
4.112853 -7.573668 -11.716615 122 124 103 
4.137072 -7.526480 -11.643614 122 124 103 
4.160991 -7.479876 -11.571517 122 124 103 
4.197531 -7.456790 -11.535803 122 124 103 
4.246913 -7.456790 -11.535803 122 124 103 
4.269938 -7.411043 -11.465031 121 123 102 
4.253777 -7.299094 -11.291843 122 124 103 
4.302115 -7.299094 -11.291843 121 123 102 
4.337349 -7.277109 -11.257832 122 124 103 
4.359282 -7.233533 -11.190419 123 125 104 
4.380952 -7.190476 -11.123810 122 124 103 
4.428571 -7.190476 -11.123810 122 124 103 
4.462908 -7.169139 -11.090801 123 125 104 
4.510386 -7.169139 -11.090801 122 124 103 
4.571429 -7.190476 -11.123810 122 124 103 
4.619048 -7.190476 -11.123810 121 123 102 
4.666667 -7.190476 -11.123810 122 124 103 
4.714286 -7.190476 -11.123810 122 124 103 
4.776119 -7.211940 -11.157015 122 124 103 
4.823881 -7.211940 -11.157015 123 125 104 
4.857143 -7.190476 -11.123810 122 124 103 
4.904762 -7.190476 -11.123810 121 123 102 
4.937685 -7.169139 -11.090801 121 123 102 
4.985163 -7.169139 -11.090801 121 123 102 
5.032641 -7.169139 -11.090801 121 123 102 
5.080119 -7.169139 -11.090801 121 123 102 
-0.490421 -3.106003 -4.773436 167 107 106 
-0.469388 -3.102041 -4.767347 146 86 85 
-0.448980 -3.102041 -4.767347 152 94 90 
-0.428571 -3.102041 -4.767347 168 110 106 
-0.408163 -3.102041 -4.767347 130 72 68 
-0.387755 -3.102041 -4.767347 136 81 76 
2.500000 -9.500000 -14.600000 127 129 108 
2.562500 -9.500000 -14.600000 127 129 108 
2.625000 -9.500000 -14.600000 128 130 109 
2.687500 -9.500000 -14.600000 129 131 110 
2.750000 -9.500000 -14.600000 129 131 110 
2.812500 -9.500000 -14.600000 128 130 109 
2.875000 -9.500000 -14.600000 128 130 109 
2.937500 -9.500000 -14.600000 127 129 108 
3.000000 -9.500000 -14.600000 127 129 108 
2.958491 -9.177359 -14.104152 127 129 108 
3.018868 -9.177359 -14.104152 128 130 109 
3.312500 -9.500000 -14.600000 126 128 107 
3.375000 -9.500000 -14.600000 126 128 107 
3.405406 -8.216216 -12.627028 125 127 106 
3.424749 -8.133780 -12.500335 124 126 105 
3.432343 -8.026402 -12.335314 124 126 105 
3.473684 -8.000000 -12.294737 125 127 106 
3.526316 -8.000000 -12.294737 124 126 105 
3.567213 -7.973771 -12.254427 123 125 104 
3.619672 -7.973771 -12.254427 122 124 103 
3.660131 -7.947712 -12.214379 121 123 102 
3.664516 -7.845161 -12.056774 122 124 103 
3.692308 -7.794872 -11.979487 122 124 103 
3.719745 -7.745223 -11.903185 123 125 104 
3.770701 -7.745223 -11.903185 123 125 104 
3.821656 -7.745223 -11.903185 122 124 103 
3.872612 -7.745223 -11.903185 121 123 102 
3.923567 -7.745223 -11.903185 121 123 102 
3.961905 -7.720635 -11.865397 120 122 101 
3.974843 -7.647799 -11.753459 120 122 101 
4.025157 -7.647799 -11.753459 121 123 102 
4.062696 -7.623825 -11.716615 122 124 103 
4.087227 -7.576324 -11.643614 122 124 103 
4.111455 -7.529412 -11.571517 121 123 102 
4.148148 -7.506173 -11.535803 121 123 102 
4.159021 -7.437309 -11.429970 120 122 101 
4.169697 -7.369697 -11.326061 122 124 103 
4.192771 -7.325301 -11.257832 122 124 103 
4.240964 -7.325301 -11.257832 121 123 102 
4.289156 -7.325301 -11.257832 122 124 103 
4.337349 -7.325301 -11.257832 121 123 102 
4.359282 -7.281437 -11.190419 121 123 102 
4.380952 -7.238095 -11.123810 122 124 103 
4.428571 -7.238095 -11.123810 122 124 103 
4.462908 -7.216617 -11.090801 123 125 104 
4.510386 -7.216617 -11.090801 122 124 103 
4.571429 -7.238095 -11.123810 121 123 102 
4.619048 -7.238095 -11.123810 121 123 102 
4.666667 -7.238095 -11.123810 122 124 103 
4.728358 -7.259702 -11.157015 122 124 103 
4.776119 -7.259702 -11.157015 122 124 103 
4.823881 -7.259702 -11.157015 122 124 103 
4.857143 -7.238095 -11.123810 122 124 103 
4.904762 -7.238095 -11.123810 121 123 102 
4.952381 -7.238095 -11.123810 121 123 102 
4.985163 -7.216617 -11.090801 121 123 102 
5.032641 -7.216617 -11.090801 122 124 103 
5.095238 -7.238095 -11.123810 122 124 103 
-0.490421 -3.126437 -4.773436 141 81 80 
-0.469388 -3.122449 -4.767347 134 74 73 
-0.448408 -3.118471 -4.761274 165 107 103 
-0.428025 -3.118471 -4.761274 136 78 74 
-0.408163 -3.122449 -4.767347 118 63 58 
-0.387755 -3.122449 -4.767347 132 77 72 
2.500000 -9.562500 -14.600000 130 132 111 
2.562500 -9.562500 -14.600000 129 131 110 
2.625000 -9.562500 -14.600000 129 131 110 
2.687500 -9.562500 -14.600000 128 130 109 
2.750000 -9.562500 -14.600000 127 129 108 
2.812500 -9.562500 -14.600000 126 128 107 
2.875000 -9.562500 -14.600000 126 128 107 
2.937500 -9.562500 -14.600000 126 128 107 
3.000000 -9.562500 -14.600000 126 128 107 
3.062500 -9.562500 -14.600000 127 129 108 
3.125000 -9.562500 -14.600000 128 130 109 
3.187500 -9.562500 -14.600000 128 130 109 
3.312500 -9.562500 -14.600000 127 129 108 
3.375000 -9.562500 -14.600000 126 128 107 
3.424749 -8.187291 -12.500335 123 125 104 
3.443709 -8.105960 -12.376160 123 125 104 
3.473684 -8.052631 -12.294737 123 125 104 
3.526316 -8.052631 -12.294737 123 125 104 
3.567213 -8.026230 -12.254427 123 125 104 
3.619672 -8.026230 -12.254427 123 125 104 
3.672131 -8.026230 -12.254427 122 124 103 
3.712418 -8.000000 -12.214379 122 124 103 
3.716129 -7.896774 -12.056774 122 124 103 
3.719745 -7.796178 -11.903185 122 124 103 
3.758730 -7.771429 -11.865397 122 124 103 
3.797468 -7.746835 -11.827848 121 123 102 
3.848101 -7.746835 -11.827848 121 123 102 
3.898734 -7.746835 -11.827848 121 123 102 
3.924528 -7.698113 -11.753459 120 122 101 
3.962383 -7.673981 -11.716615 120 122 101 
4.000000 -7.650000 -11.680000 121 123 102 
4.050000 -7.650000 -11.680000 122 124 103 
4.074534 -7.602485 -11.607453 121 123 102 
4.111455 -7.578948 -11.571517 121 123 102 
4.160991 -7.578948 -11.571517 120 122 101 
4.146341 -7.463415 -11.395123 120 122 101 
4.144578 -7.373494 -11.257832 121 123 102 
4.192771 -7.373494 -11.257832 122 124 103 
4.240964 -7.373494 -11.257832 121 123 102 
4.289156 -7.373494 -11.257832 122 124 103 
4.324324 -7.351351 -11.224025 121 123 102 
4.346269 -7.307463 -11.157015 120 122 101 
4.394030 -7.307463 -11.157015 123 125 104 
4.428571 -7.285714 -11.123810 123 125 104 
4.476191 -7.285714 -11.123810 123 125 104 
4.523809 -7.285714 -11.123810 122 124 103 
4.571429 -7.285714 -11.123810 121 123 102 
4.632836 -7.307463 -11.157015 121 123 102 
4.680597 -7.307463 -11.157015 122 124 103 
4.742515 -7.329341 -11.190419 122 124 103 
4.790419 -7.329341 -11.190419 122 124 103 
4.838323 -7.329341 -11.190419 121 123 102 
4.871642 -7.307463 -11.157015 121 123 102 
4.919403 -7.307463 -11.157015 121 123 102 
4.952381 -7.285714 -11.123810 121 123 102 
5.000000 -7.285714 -11.123810 121 123 102 
5.047619 -7.285714 -11.123810 122 124 103 
5.095238 -7.285714 -11.123810 122 124 103 
5.158209 -7.307463 -11.157015 121 123 102 
-0.489796 -3.142857 -4.767347 161 101 100 
-0.468790 -3.138854 -4.761274 151 91 90 
-0.448408 -3.138854 -4.761274 197 139 135 
-0.428025 -3.138854 -4.761274 131 73 69 
-0.407643 -3.138854 -4.761274 105 50 45 
-0.387755 -3.142857 -4.767347 111 53 49 
2.328358 -9.194030 -13.946269 130 132 111 
2.388060 -9.194030 -13.946269 130 132 111 
2.562500 -9.625000 -14.600000 129 131 110 
2.625000 -9.625000 -14.600000 128 130 109 
2.687500 -9.625000 -14.600000 127 129 108 
2.750000 -9.625000 -14.600000 126 128 107 
2.812500 -9.625000 -14.600000 127 129 108 
2.875000 -9.625000 -14.600000 127 129 108 
2.937500 -9.625000 -14.600000 127 129 108 
3.000000 -9.625000 -14.600000 127 129 108 
3.062500 -9.625000 -14.600000 127 129 108 
3.125000 -9.625000 -14.600000 127 129 108 
3.187500 -9.625000 -14.600000 127 129 108 
3.250000 -9.625000 -14.600000 127 129 108 
3.312500 -9.625000 -14.600000 128 130 109 
3.375000 -9.625000 -14.600000 127 129 108 
3.437500 -9.625000 -14.600000 126 128 107 
3.500000 -9.625000 -14.600000 126 128 107 
3.562500 -9.625000 -14.600000 126 128 107 
3.625000 -9.625000 -14.600000 127 129 108 
3.687500 -9.625000 -14.600000 127 129 108 
3.750000 -9.625000 -14.600000 126 128 107 
3.770701 -7.847134 -11.903185 121 123 102 
3.809524 -7.822222 -11.865397 121 123 102 
3.848101 -7.797468 -11.827848 121 123 102 
3.886435 -7.772871 -11.790537 122 124 103 
3.912226 -7.724138 -11.716615 121 123 102 
3.950000 -7.700000 -11.680000 121 123 102 
4.000000 -7.700000 -11.680000 121 123 102 
4.050000 -7.700000 -11.680000 121 123 102 
4.159021 -7.535168 -11.429970 120 122 101 
4.144578 -7.421687 -11.257832 121 123 102 
4.180180 -7.399399 -11.224025 123 125 104 
4.228228 -7.399399 -11.224025 120 122 101 
4.276276 -7.399399 -11.224025 122 124 103 
4.324324 -7.399399 -11.224025 121 123 102 
4.346269 -7.355224 -11.157015 119 121 100 
4.394030 -7.355224 -11.157015 123 125 104 
4.428571 -7.333333 -11.123810 124 126 105 
4.476191 -7.333333 -11.123810 122 124 103 
4.523809 -7.333333 -11.123810 121 123 102 
4.585074 -7.355224 -11.157015 120 122 101 
4.646707 -7.377245 -11.190419 120 122 101 
4.694611 -7.377245 -11.190419 122 124 103 
4.756757 -7.399399 -11.224025 122 124 103 
4.804805 -7.399399 -11.224025 122 124 103 
4.852853 -7.399399 -11.224025 120 122 101 
4.900901 -7.399399 -11.224025 120 122 101 
4.934132 -7.377245 -11.190419 120 122 101 
4.982036 -7.377245 -11.190419 120 122 101 
5.029940 -7.377245 -11.190419 122 124 103 
5.062686 -7.355224 -11.157015 123 125 104 
5.110448 -7.355224 -11.157015 123 125 104 
5.158209 -7.355224 -11.157015 122 124 103 
-0.489796 -3.163265 -4.767347 177 117 116 
-0.468790 -3.159236 -4.761274 152 92 91 
-0.448408 -3.159236 -4.761274 122 64 62 
-0.428025 -3.159236 -4.761274 149 94 89 
-0.408163 -3.163265 -4.767347 129 74 71 
2.243542 -9.151292 -13.791883 127 129 108 
2.294118 -9.117647 -13.741177 128 130 109 
2.352941 -9.117647 -13.741177 128 130 109 
2.447761 -9.253732 -13.946269 127 129 108 
2.625000 -9.687500 -14.600000 126 128 107 
2.687500 -9.687500 -14.600000 126 128 107 
2.750000 -9.687500 -14.600000 128 130 109 
2.812500 -9.687500 -14.600000 130 132 111 
2.875000 -9.687500 -14.600000 130 132 111 
2.937500 -9.687500 -14.600000 130 132 111 
3.000000 -9.687500 -14.600000 129 131 110 
3.062500 -9.687500 -14.600000 128 130 109 
3.125000 -9.687500 -14.600000 126 128 107 
3.187500 -9.687500 -14.600000 125 127 106 
3.250000 -9.687500 -14.600000 126 128 107 
3.312500 -9.687500 -14.600000 127 129 108 
3.375000 -9.687500 -14.600000 128 130 109 
3.437500 -9.687500 -14.600000 126 128 107 
3.500000 -9.687500 -14.600000 123 125 104 
3.562500 -9.687500 -14.600000 123 125 104 
3.625000 -9.687500 -14.600000 124 126 105 
3.687500 -9.687500 -14.600000 126 128 107 
3.750000 -9.687500 -14.600000 127 129 108 
3.812500 -9.687500 -14.600000 128 130 109 
3.898734 -7.848101 -11.827848 122 124 103 
3.936908 -7.823344 -11.790537 122 124 103 
3.950000 -7.750000 -11.680000 122 124 103 
4.132132 -7.447447 -11.224025 121 123 102 
4.167665 -7.425150 -11.190419 123 125 104 
4.215569 -7.425150 -11.190419 120 122 101 
4.263473 -7.425150 -11.190419 122 124 103 
