ply
format ascii 1.0
element vertex 1170
property float x
property float y
property float z
property uchar red
property uchar green
property uchar blue
end_header
-0.785714 -0.928571 -1.516883 11 10 6 
-0.779221 -0.928571 -1.516883 15 10 7 
-0.767742 -0.922581 -1.507097 19 11 8 
-0.761290 -0.922581 -1.507097 22 13 8 
-0.754839 -0.922581 -1.507097 26 15 9 
-0.748387 -0.922581 -1.507097 33 20 12 
-0.741935 -0.922581 -1.507097 38 25 17 
-0.730769 -0.916667 -1.497436 32 23 16 
-0.729032 -0.922581 -1.507097 24 17 9 
-0.717949 -0.916667 -1.497436 22 15 9 
-0.711538 -0.916667 -1.497436 19 14 8 
-0.705128 -0.916667 -1.497436 14 11 6 
-0.698718 -0.916667 -1.497436 12 9 4 
-0.692308 -0.916667 -1.497436 11 10 6 
-0.681529 -0.910828 -1.487898 10 9 5 
-0.675159 -0.910828 -1.487898 10 10 8 
-0.664557 -0.905063 -1.478481 10 10 8 
-0.658228 -0.905063 -1.478481 11 11 9 
-0.656051 -0.910828 -1.487898 12 12 10 
-0.653846 -0.916667 -1.497436 15 14 10 
-0.643312 -0.910828 -1.487898 17 16 12 
-0.636943 -0.910828 -1.487898 16 15 11 
-0.634615 -0.916667 -1.497436 16 15 11 
-0.624204 -0.910828 -1.487898 17 13 12 
-0.617834 -0.910828 -1.487898 15 14 12 
-0.611465 -0.910828 -1.487898 13 13 11 
-0.605096 -0.910828 -1.487898 12 12 10 
-0.594937 -0.905063 -1.478481 12 13 8 
-0.588608 -0.905063 -1.478481 15 14 10 
-0.589744 -0.916667 -1.497436 18 14 13 
-0.587097 -0.922581 -1.507097 18 14 13 
-0.600000 -0.953333 -1.557333 23 19 18 
-0.631206 -1.014184 -1.656738 37 36 34 
-0.825243 -1.388350 -2.267961 68 55 47 
-0.831683 -1.415842 -2.312871 92 73 66 
-0.821782 -1.415842 -2.312871 98 69 63 
-0.820000 -1.430000 -2.336000 118 81 75 
-0.810000 -1.430000 -2.336000 93 49 46 
-0.808081 -1.444444 -2.359596 129 84 81 
-0.806122 -1.459184 -2.383673 132 84 82 
-0.812500 -1.489583 -2.433333 110 60 59 
-0.810526 -1.505263 -2.458947 126 75 74 
-0.800000 -1.505263 -2.458947 148 94 92 
-0.797872 -1.521277 -2.485106 122 66 65 
-0.778947 -1.505263 -2.458947 149 93 92 
-0.776596 -1.521277 -2.485106 148 92 91 
-0.757895 -1.505263 -2.458947 90 37 33 
-0.755319 -1.521277 -2.485106 162 109 105 
-0.744681 -1.521277 -2.485106 159 106 102 
-0.734043 -1.521277 -2.485106 130 77 73 
-0.723404 -1.521277 -2.485106 125 72 68 
-0.712766 -1.521277 -2.485106 114 61 57 
-0.702128 -1.521277 -2.485106 121 68 64 
-0.698925 -1.537634 -2.511828 120 67 63 
-0.680851 -1.521277 -2.485106 153 102 98 
-0.677419 -1.537634 -2.511828 171 120 116 
-0.673913 -1.554348 -2.539130 143 92 88 
-0.663043 -1.554348 -2.539130 132 79 75 
-0.659341 -1.571429 -2.567033 168 113 110 
-0.655556 -1.588889 -2.595556 133 75 73 
-0.644444 -1.588889 -2.595556 145 87 85 
-0.640449 -1.606742 -2.624719 108 50 48 
-0.629214 -1.606742 -2.624719 119 64 61 
-0.617977 -1.606742 -2.624719 141 86 83 
-0.606742 -1.606742 -2.624719 140 87 81 
-0.588889 -1.588889 -2.595556 115 65 58 
-0.584270 -1.606742 -2.624719 140 90 83 
-0.579545 -1.625000 -2.654546 155 102 98 
-0.561798 -1.606742 -2.624719 130 70 70 
-0.563218 -1.643678 -2.685058 140 75 79 
-0.551724 -1.643678 -2.685058 124 57 64 
-0.534091 -1.625000 -2.654546 145 84 92 
-0.522727 -1.625000 -2.654546 209 159 168 
-0.505618 -1.606742 -2.624719 180 138 148 
-0.494382 -1.606742 -2.624719 136 98 111 
-0.483146 -1.606742 -2.624719 203 165 178 
-0.477273 -1.625000 -2.654546 209 166 176 
-0.465909 -1.625000 -2.654546 132 79 89 
-0.459770 -1.643678 -2.685058 96 31 39 
-0.453488 -1.662791 -2.716279 132 63 68 
-0.441860 -1.662791 -2.716279 157 93 93 
-0.430233 -1.662791 -2.716279 132 72 71 
-0.418605 -1.662791 -2.716279 148 90 88 
-0.406977 -1.662791 -2.716279 146 86 85 
-0.395349 -1.662791 -2.716279 135 71 71 
-0.383721 -1.662791 -2.716279 162 98 98 
-0.380952 -1.702381 -2.780952 166 105 104 
-0.364706 -1.682353 -2.748235 163 102 101 
-0.352941 -1.682353 -2.748235 169 109 108 
-0.341176 -1.682353 -2.748235 182 122 121 
-0.333333 -1.702381 -2.780952 160 102 98 
-0.317647 -1.682353 -2.748235 116 58 54 
-0.309524 -1.702381 -2.780952 141 82 78 
-0.294118 -1.682353 -2.748235 169 110 106 
-0.285714 -1.702381 -2.780952 176 115 112 
-0.273810 -1.702381 -2.780952 180 119 116 
-0.261905 -1.702381 -2.780952 171 112 108 
-0.250000 -1.702381 -2.780952 153 94 90 
-0.238095 -1.702381 -2.780952 158 100 96 
-0.226190 -1.702381 -2.780952 161 103 99 
-0.214286 -1.702381 -2.780952 154 96 94 
-0.200000 -1.682353 -2.748235 149 93 92 
-0.188235 -1.682353 -2.748235 129 71 69 
-0.178571 -1.702381 -2.780952 141 86 83 
-0.166667 -1.702381 -2.780952 161 106 101 
-0.154762 -1.702381 -2.780952 170 115 110 
-0.144578 -1.722892 -2.814458 143 88 81 
-0.132530 -1.722892 -2.814458 125 70 63 
-0.121951 -1.743902 -2.848781 127 70 63 
-0.108434 -1.722892 -2.814458 175 118 111 
-0.097561 -1.743902 -2.848781 173 116 109 
-0.085366 -1.743902 -2.848781 150 93 86 
-0.073171 -1.743902 -2.848781 145 88 81 
-0.062500 -1.787500 -2.920000 182 125 118 
-0.049383 -1.765432 -2.883951 164 105 101 
-0.037500 -1.787500 -2.920000 118 59 55 
-0.025000 -1.787500 -2.920000 144 85 81 
-0.012658 -1.810127 -2.956962 146 87 83 
0.000000 -1.810127 -2.956962 176 117 113 
0.012658 -1.810127 -2.956962 196 137 133 
0.025316 -1.810127 -2.956962 175 114 109 
0.037975 -1.810127 -2.956962 157 96 91 
0.050633 -1.810127 -2.956962 143 80 75 
0.063291 -1.810127 -2.956962 169 106 101 
0.075949 -1.810127 -2.956962 171 108 103 
0.088608 -1.810127 -2.956962 180 119 114 
0.100000 -1.787500 -2.920000 172 113 107 
0.113924 -1.810127 -2.956962 187 128 122 
0.125000 -1.787500 -2.920000 194 137 130 
0.137500 -1.787500 -2.920000 184 129 122 
0.146341 -1.743902 -2.848781 147 92 87 
0.158537 -1.743902 -2.848781 175 120 115 
0.168675 -1.722892 -2.814458 189 131 129 
0.180723 -1.722892 -2.814458 168 113 110 
0.190476 -1.702381 -2.780952 204 153 149 
0.202381 -1.702381 -2.780952 193 144 139 
0.211765 -1.682353 -2.748235 116 67 62 
0.220930 -1.662791 -2.716279 131 84 78 
0.232558 -1.662791 -2.716279 137 90 84 
0.238636 -1.625000 -2.654546 130 85 79 
0.247191 -1.606742 -2.624719 137 92 86 
0.258427 -1.606742 -2.624719 139 92 86 
0.266667 -1.588889 -2.595556 161 112 107 
0.277778 -1.588889 -2.595556 160 111 106 
0.288889 -1.588889 -2.595556 127 82 76 
0.300000 -1.588889 -2.595556 123 86 77 
0.311111 -1.588889 -2.595556 134 112 98 
0.318681 -1.571429 -2.567033 132 121 103 
0.333333 -1.588889 -2.595556 139 136 117 
0.340659 -1.571429 -2.567033 131 133 112 
0.344086 -1.537634 -2.511828 132 134 113 
0.351064 -1.521277 -2.485106 130 132 111 
0.361702 -1.521277 -2.485106 129 131 110 
0.360825 -1.474227 -2.408247 131 133 112 
0.776978 -1.028777 -1.680576 121 123 102 
0.773050 -1.014184 -1.656738 121 123 102 
0.769231 -1.000000 -1.633566 123 125 104 
-0.810458 -0.941176 -1.526797 14 15 9 
-0.798701 -0.935065 -1.516883 11 12 6 
-0.792208 -0.935065 -1.516883 10 11 6 
-0.785714 -0.935065 -1.516883 11 10 6 
-0.779221 -0.935065 -1.516883 12 11 7 
-0.767742 -0.929032 -1.507097 16 12 9 
-0.761290 -0.929032 -1.507097 17 12 8 
-0.754839 -0.929032 -1.507097 19 11 8 
-0.748387 -0.929032 -1.507097 22 15 9 
-0.741935 -0.929032 -1.507097 26 19 13 
-0.730769 -0.923077 -1.497436 26 19 13 
-0.729032 -0.929032 -1.507097 21 16 10 
-0.717949 -0.923077 -1.497436 21 16 12 
-0.711538 -0.923077 -1.497436 19 16 11 
-0.705128 -0.923077 -1.497436 15 11 8 
-0.698718 -0.923077 -1.497436 13 9 6 
-0.692308 -0.923077 -1.497436 10 9 5 
-0.677215 -0.911392 -1.478481 10 9 5 
-0.670886 -0.911392 -1.478481 11 10 8 
-0.664557 -0.911392 -1.478481 11 10 8 
-0.658228 -0.911392 -1.478481 14 13 9 
-0.651899 -0.911392 -1.478481 17 16 12 
-0.649682 -0.917197 -1.487898 21 17 14 
-0.643312 -0.917197 -1.487898 21 17 14 
-0.636943 -0.917197 -1.487898 19 16 11 
-0.630573 -0.917197 -1.487898 18 14 11 
-0.620253 -0.911392 -1.478481 17 13 12 
-0.617834 -0.917197 -1.487898 15 11 10 
-0.607595 -0.911392 -1.478481 12 11 7 
-0.605096 -0.917197 -1.487898 14 13 9 
-0.591195 -0.905660 -1.469182 14 13 9 
-0.584906 -0.905660 -1.469182 12 11 7 
-0.589744 -0.923077 -1.497436 15 11 8 
-0.583333 -0.923077 -1.497436 18 14 11 
-0.592105 -0.947368 -1.536842 21 20 18 
-0.605442 -0.979592 -1.589116 33 32 30 
-0.834951 -1.398058 -2.267961 55 50 44 
-0.825243 -1.398058 -2.267961 55 45 36 
-0.831683 -1.425743 -2.312871 93 76 68 
-0.821782 -1.425743 -2.312871 119 94 87 
-0.820000 -1.440000 -2.336000 131 96 90 
-0.810000 -1.440000 -2.336000 85 44 40 
-0.800000 -1.440000 -2.336000 107 62 59 
-0.806122 -1.469388 -2.383673 114 64 63 
-0.804124 -1.484536 -2.408247 108 54 54 
-0.793814 -1.484536 -2.408247 101 45 46 
-0.791667 -1.500000 -2.433333 133 77 76 
-0.789474 -1.515790 -2.458947 144 90 88 
-0.770833 -1.500000 -2.433333 158 104 102 
-0.768421 -1.515790 -2.458947 140 89 86 
-0.757895 -1.515790 -2.458947 97 46 42 
-0.747368 -1.515790 -2.458947 153 102 98 
-0.736842 -1.515790 -2.458947 168 117 113 
-0.726316 -1.515790 -2.458947 153 100 96 
-0.715789 -1.515790 -2.458947 144 91 87 
-0.705263 -1.515790 -2.458947 148 93 90 
-0.702128 -1.531915 -2.485106 138 85 81 
-0.698925 -1.548387 -2.511828 106 53 49 
-0.680851 -1.531915 -2.485106 129 75 73 
-0.670213 -1.531915 -2.485106 138 84 82 
-0.666667 -1.548387 -2.511828 142 88 86 
-0.663043 -1.565217 -2.539130 146 92 90 
-0.652174 -1.565217 -2.539130 168 114 112 
-0.648352 -1.582418 -2.567033 138 82 81 
-0.637363 -1.582418 -2.567033 149 91 90 
-0.633333 -1.600000 -2.595556 139 81 80 
-0.622222 -1.600000 -2.595556 147 87 86 
-0.617977 -1.617977 -2.624719 140 82 80 
-0.600000 -1.600000 -2.595556 111 56 51 
-0.588889 -1.600000 -2.595556 132 79 73 
-0.577778 -1.600000 -2.595556 152 103 96 
-0.573034 -1.617977 -2.624719 138 89 84 
-0.561798 -1.617977 -2.624719 155 97 96 
-0.556818 -1.636364 -2.654546 150 86 87 
-0.545455 -1.636364 -2.654546 123 54 59 
-0.528090 -1.617977 -2.624719 109 44 50 
-0.522727 -1.636364 -2.654546 151 98 106 
-0.505618 -1.617977 -2.624719 156 110 120 
-0.494382 -1.617977 -2.624719 134 93 107 
-0.483146 -1.617977 -2.624719 160 122 135 
-0.477273 -1.636364 -2.654546 113 72 86 
-0.465909 -1.636364 -2.654546 126 79 89 
-0.459770 -1.655172 -2.685058 120 59 66 
-0.448276 -1.655172 -2.685058 155 89 91 
-0.441860 -1.674419 -2.716279 160 96 94 
-0.430233 -1.674419 -2.716279 143 84 80 
-0.413793 -1.655172 -2.685058 157 99 97 
-0.406977 -1.674419 -2.716279 162 102 101 
-0.390805 -1.655172 -2.685058 131 70 69 
-0.379310 -1.655172 -2.685058 142 78 78 
-0.376471 -1.694118 -2.748235 158 97 96 
-0.360465 -1.674419 -2.716279 150 89 88 
-0.352941 -1.694118 -2.748235 127 67 66 
-0.341176 -1.694118 -2.748235 144 86 84 
-0.333333 -1.714286 -2.780952 166 108 106 
-0.317647 -1.694118 -2.748235 159 101 99 
-0.309524 -1.714286 -2.780952 167 107 106 
-0.294118 -1.694118 -2.748235 169 109 108 
-0.285714 -1.714286 -2.780952 147 86 85 
-0.273810 -1.714286 -2.780952 155 94 93 
-0.261905 -1.714286 -2.780952 179 120 116 
-0.250000 -1.714286 -2.780952 161 102 98 
-0.238095 -1.714286 -2.780952 157 99 95 
-0.226190 -1.714286 -2.780952 181 123 119 
-0.214286 -1.714286 -2.780952 160 105 102 
-0.202381 -1.714286 -2.780952 190 137 133 
-0.190476 -1.714286 -2.780952 146 91 88 
-0.178571 -1.714286 -2.780952 166 111 108 
-0.168675 -1.734940 -2.814458 176 121 116 
-0.156627 -1.734940 -2.814458 154 99 94 
-0.146341 -1.756098 -2.848781 134 77 70 
-0.132530 -1.734940 -2.814458 157 100 93 
-0.121951 -1.756098 -2.848781 149 92 85 
-0.108434 -1.734940 -2.814458 163 106 99 
-0.097561 -1.756098 -2.848781 157 102 97 
-0.084337 -1.734940 -2.814458 155 100 95 
-0.073171 -1.756098 -2.848781 150 95 90 
-0.061728 -1.777778 -2.883951 165 110 105 
-0.049383 -1.777778 -2.883951 171 113 111 
-0.037037 -1.777778 -2.883951 136 78 76 
-0.024691 -1.777778 -2.883951 163 104 100 
-0.012658 -1.822785 -2.956962 149 88 85 
0.000000 -1.800000 -2.920000 171 110 107 
0.012500 -1.800000 -2.920000 209 148 145 
0.025000 -1.800000 -2.920000 159 98 93 
0.037500 -1.800000 -2.920000 147 86 81 
0.050000 -1.800000 -2.920000 156 97 91 
0.062500 -1.800000 -2.920000 150 91 85 
0.075949 -1.822785 -2.956962 154 97 90 
0.087500 -1.800000 -2.920000 165 108 101 
0.098765 -1.777778 -2.883951 180 121 115 
0.112500 -1.800000 -2.920000 182 123 117 
0.125000 -1.800000 -2.920000 174 115 111 
0.135802 -1.777778 -2.883951 181 123 119 
0.146341 -1.756098 -2.848781 156 98 94 
0.158537 -1.756098 -2.848781 180 122 118 
0.168675 -1.734940 -2.814458 184 129 126 
0.178571 -1.714286 -2.780952 174 121 117 
0.190476 -1.714286 -2.780952 213 164 159 
0.202381 -1.714286 -2.780952 166 119 113 
0.211765 -1.694118 -2.748235 124 77 71 
0.220930 -1.674419 -2.716279 140 95 89 
0.229885 -1.655172 -2.685058 140 95 89 
0.238636 -1.636364 -2.654546 141 96 90 
0.247191 -1.617977 -2.624719 139 94 88 
0.258427 -1.617977 -2.624719 160 113 107 
0.266667 -1.600000 -2.595556 141 92 87 
0.277778 -1.600000 -2.595556 132 83 78 
0.288889 -1.600000 -2.595556 125 80 74 
0.296703 -1.582418 -2.567033 114 77 68 
0.311111 -1.600000 -2.595556 135 112 98 
0.318681 -1.582418 -2.567033 147 134 117 
0.333333 -1.600000 -2.595556 140 137 118 
0.340659 -1.582418 -2.567033 130 132 111 
0.344086 -1.548387 -2.511828 130 132 111 
0.351064 -1.531915 -2.485106 130 132 111 
0.357895 -1.515790 -2.458947 130 132 111 
0.360825 -1.484536 -2.408247 132 134 113 
0.440594 -0.712871 -1.156436 123 125 104 
0.782609 -1.043478 -1.692754 121 123 102 
0.784173 -1.035971 -1.680576 121 123 102 
0.774648 -1.014084 -1.645070 121 123 102 
-0.815789 -0.953947 -1.536842 17 16 11 
-0.798701 -0.941558 -1.516883 12 13 7 
-0.792208 -0.941558 -1.516883 12 11 7 
-0.785714 -0.941558 -1.516883 12 11 7 
-0.779221 -0.941558 -1.516883 12 11 9 
-0.767742 -0.935484 -1.507097 12 11 9 
-0.761290 -0.935484 -1.507097 14 10 9 
-0.754839 -0.935484 -1.507097 14 10 7 
-0.748387 -0.935484 -1.507097 17 13 10 
-0.741935 -0.935484 -1.507097 19 16 11 
-0.730769 -0.929487 -1.497436 21 18 13 
-0.729032 -0.935484 -1.507097 20 17 10 
-0.722581 -0.935484 -1.507097 18 15 10 
-0.711538 -0.929487 -1.497436 15 12 7 
-0.705128 -0.929487 -1.497436 12 8 5 
-0.698718 -0.929487 -1.497436 11 7 4 
-0.692308 -0.929487 -1.497436 9 8 4 
-0.677215 -0.917722 -1.478481 11 10 6 
-0.670886 -0.917722 -1.478481 11 10 8 
-0.664557 -0.917722 -1.478481 13 12 10 
-0.654088 -0.911950 -1.469182 17 16 12 
-0.651899 -0.917722 -1.478481 21 20 16 
-0.649682 -0.923567 -1.487898 25 21 18 
-0.639241 -0.917722 -1.478481 23 19 16 
-0.632911 -0.917722 -1.478481 20 17 12 
-0.626582 -0.917722 -1.478481 18 15 10 
-0.616352 -0.911950 -1.469182 18 14 11 
-0.613924 -0.917722 -1.478481 15 11 10 
-0.607595 -0.917722 -1.478481 12 11 7 
-0.601266 -0.917722 -1.478481 16 15 11 
-0.591195 -0.911950 -1.469182 16 15 11 
-0.584906 -0.911950 -1.469182 15 11 8 
-0.589744 -0.929487 -1.497436 16 12 9 
-0.583333 -0.929487 -1.497436 20 16 13 
-0.588235 -0.947712 -1.526797 24 23 21 
-0.589404 -0.960265 -1.547020 33 34 29 
-0.826923 -1.394231 -2.246154 54 49 43 
-0.825243 -1.407767 -2.267961 48 39 30 
-0.823529 -1.421569 -2.290196 88 73 66 
-0.821782 -1.435644 -2.312871 124 101 95 
-0.811881 -1.435644 -2.312871 136 103 98 
-0.810000 -1.450000 -2.336000 107 66 62 
-0.800000 -1.450000 -2.336000 103 58 55 
-0.797980 -1.464646 -2.359596 111 61 60 
-0.795918 -1.479592 -2.383673 119 63 64 
-0.793814 -1.494845 -2.408247 126 67 69 
-0.791667 -1.510417 -2.433333 121 65 64 
-0.789474 -1.526316 -2.458947 126 72 70 
-0.770833 -1.510417 -2.433333 127 78 74 
-0.768421 -1.526316 -2.458947 152 103 99 
-0.750000 -1.510417 -2.433333 118 69 64 
-0.747368 -1.526316 -2.458947 119 68 64 
-0.736842 -1.526316 -2.458947 133 82 78 
-0.726316 -1.526316 -2.458947 125 74 70 
-0.715789 -1.526316 -2.458947 154 101 97 
-0.705263 -1.526316 -2.458947 151 98 94 
-0.694737 -1.526316 -2.458947 133 80 76 
-0.691489 -1.542553 -2.485106 112 59 55 
-0.673684 -1.526316 -2.458947 133 79 77 
-0.670213 -1.542553 -2.485106 135 81 79 
-0.659574 -1.542553 -2.485106 160 106 104 
-0.655914 -1.559140 -2.511828 154 100 98 
-0.645161 -1.559140 -2.511828 140 86 84 
-0.641304 -1.576087 -2.539130 134 80 78 
-0.630435 -1.576087 -2.539130 141 85 84 
-0.626374 -1.593407 -2.567033 144 84 84 
-0.615385 -1.593407 -2.567033 156 95 94 
-0.604396 -1.593407 -2.567033 150 89 88 
-0.593407 -1.593407 -2.567033 148 90 86 
-0.582418 -1.593407 -2.567033 174 121 115 
-0.571429 -1.593407 -2.567033 178 131 123 
-0.566667 -1.611111 -2.595556 148 101 93 
-0.555556 -1.611111 -2.595556 149 93 92 
-0.550562 -1.629213 -2.624719 143 81 82 
-0.539326 -1.629213 -2.624719 134 64 66 
-0.522222 -1.611111 -2.595556 93 24 27 
-0.516854 -1.629213 -2.624719 110 51 57 
-0.500000 -1.611111 -2.595556 134 84 93 
-0.488889 -1.611111 -2.595556 128 86 100 
-0.477778 -1.611111 -2.595556 119 81 96 
-0.471910 -1.629213 -2.624719 124 86 101 
-0.460674 -1.629213 -2.624719 172 129 139 
-0.454545 -1.647727 -2.654546 152 93 99 
-0.448276 -1.666667 -2.685058 138 74 75 
-0.436782 -1.666667 -2.685058 138 77 74 
-0.425287 -1.666667 -2.685058 144 85 79 
-0.413793 -1.666667 -2.685058 147 89 85 
-0.402299 -1.666667 -2.685058 178 120 118 
-0.390805 -1.666667 -2.685058 168 107 106 
-0.379310 -1.666667 -2.685058 141 80 79 
-0.376471 -1.705882 -2.748235 165 104 103 
-0.360465 -1.686046 -2.716279 153 93 92 
-0.352941 -1.705882 -2.748235 109 51 49 
-0.341176 -1.705882 -2.748235 127 69 67 
-0.333333 -1.726190 -2.780952 198 140 138 
-0.317647 -1.705882 -2.748235 210 152 150 
-0.309524 -1.726190 -2.780952 166 106 105 
-0.294118 -1.705882 -2.748235 155 95 94 
-0.285714 -1.726190 -2.780952 124 63 62 
-0.273810 -1.726190 -2.780952 121 60 59 
-0.265060 -1.746988 -2.814458 133 74 70 
-0.253012 -1.746988 -2.814458 152 93 89 
-0.238095 -1.726190 -2.780952 178 120 116 
-0.226190 -1.726190 -2.780952 170 112 108 
-0.216867 -1.746988 -2.814458 138 85 81 
-0.202381 -1.726190 -2.780952 153 100 96 
-0.190476 -1.726190 -2.780952 149 96 92 
-0.178571 -1.726190 -2.780952 170 117 113 
-0.168675 -1.746988 -2.814458 119 64 59 
-0.154762 -1.726190 -2.780952 129 74 69 
-0.144578 -1.746988 -2.814458 145 88 81 
-0.132530 -1.746988 -2.814458 139 82 75 
-0.121951 -1.768293 -2.848781 119 62 55 
-0.108434 -1.746988 -2.814458 133 76 69 
-0.097561 -1.768293 -2.848781 118 63 58 
-0.084337 -1.746988 -2.814458 116 61 56 
-0.073171 -1.768293 -2.848781 162 107 102 
-0.061728 -1.790123 -2.883951 176 123 117 
-0.049383 -1.790123 -2.883951 165 112 108 
-0.037037 -1.790123 -2.883951 135 80 77 
-0.024691 -1.790123 -2.883951 149 90 86 
-0.012500 -1.812500 -2.920000 150 89 86 
0.000000 -1.812500 -2.920000 147 83 81 
0.012346 -1.790123 -2.883951 161 97 95 
0.024691 -1.790123 -2.883951 167 106 101 
0.037500 -1.812500 -2.920000 162 103 97 
0.050000 -1.812500 -2.920000 137 80 73 
0.062500 -1.812500 -2.920000 154 99 92 
0.075000 -1.812500 -2.920000 164 109 102 
0.086420 -1.790123 -2.883951 139 84 77 
0.098765 -1.790123 -2.883951 154 95 89 
0.111111 -1.790123 -2.883951 174 115 109 
0.123457 -1.790123 -2.883951 163 102 99 
0.134146 -1.768293 -2.848781 182 123 119 
0.144578 -1.746988 -2.814458 165 106 102 
0.156627 -1.746988 -2.814458 146 88 84 
0.166667 -1.726190 -2.780952 159 104 101 
0.178571 -1.726190 -2.780952 176 123 119 
0.188235 -1.705882 -2.748235 156 107 102 
0.200000 -1.705882 -2.748235 139 92 86 
0.209302 -1.686046 -2.716279 145 100 94 
0.220930 -1.686046 -2.716279 128 83 77 
0.229885 -1.666667 -2.685058 169 126 119 
0.238636 -1.647727 -2.654546 189 146 139 
0.247191 -1.629213 -2.624719 113 68 62 
0.258427 -1.629213 -2.624719 123 78 72 
0.266667 -1.611111 -2.595556 163 114 109 
0.274725 -1.593407 -2.567033 148 101 95 
0.285714 -1.593407 -2.567033 156 113 106 
0.296703 -1.593407 -2.567033 137 103 93 
0.307692 -1.593407 -2.567033 137 114 100 
0.318681 -1.593407 -2.567033 145 132 115 
0.333333 -1.611111 -2.595556 129 126 107 
0.340659 -1.593407 -2.567033 124 126 105 
0.347826 -1.576087 -2.539130 131 133 112 
0.351064 -1.542553 -2.485106 135 137 116 
0.357895 -1.526316 -2.458947 134 136 115 
0.364583 -1.510417 -2.433333 132 134 113 
0.440594 -0.717822 -1.156436 123 125 104 
0.459596 -0.732323 -1.179798 123 125 104 
0.464646 -0.732323 -1.179798 122 124 103 
0.782609 -1.050725 -1.692754 121 123 102 
0.778571 -1.035714 -1.668571 121 123 102 
-0.821192 -0.966887 -1.547020 17 16 11 
-0.803922 -0.954248 -1.526797 13 12 7 
-0.792208 -0.948052 -1.516883 13 9 6 
-0.785714 -0.948052 -1.516883 12 11 7 
-0.779221 -0.948052 -1.516883 11 10 8 
-0.767742 -0.941935 -1.507097 10 9 7 
-0.761290 -0.941935 -1.507097 10 9 7 
-0.754839 -0.941935 -1.507097 11 10 8 
-0.748387 -0.941935 -1.507097 13 12 10 
-0.741935 -0.941935 -1.507097 14 13 9 
-0.735484 -0.941935 -1.507097 16 15 10 
-0.724359 -0.935897 -1.497436 17 16 11 
-0.717949 -0.935897 -1.497436 16 15 11 
-0.711538 -0.935897 -1.497436 12 11 7 
-0.700637 -0.929936 -1.487898 10 9 5 
-0.694268 -0.929936 -1.487898 9 8 4 
-0.692308 -0.935897 -1.497436 9 8 6 
-0.677215 -0.924051 -1.478481 11 10 8 
-0.666667 -0.918239 -1.469182 13 12 8 
-0.660377 -0.918239 -1.469182 15 14 10 
-0.654088 -0.918239 -1.469182 20 19 15 
-0.647799 -0.918239 -1.469182 25 24 20 
-0.645570 -0.924051 -1.478481 29 26 21 
-0.635220 -0.918239 -1.469182 26 23 18 
-0.628931 -0.918239 -1.469182 22 17 13 
-0.622642 -0.918239 -1.469182 18 15 10 
-0.612500 -0.912500 -1.460000 19 15 12 
-0.610063 -0.918239 -1.469182 14 13 9 
-0.603774 -0.918239 -1.469182 15 11 8 
-0.601266 -0.924051 -1.478481 17 13 10 
-0.587500 -0.912500 -1.460000 18 15 10 
-0.581250 -0.912500 -1.460000 17 14 9 
-0.589744 -0.935897 -1.497436 17 13 10 
-0.583333 -0.935897 -1.497436 19 15 12 
-0.584416 -0.948052 -1.516883 25 24 20 
-0.581699 -0.954248 -1.526797 30 31 26 
-0.826923 -1.403846 -2.246154 64 61 54 
-0.825243 -1.417476 -2.267961 63 56 46 
-0.823529 -1.431373 -2.290196 79 69 60 
-0.813725 -1.431373 -2.290196 93 74 67 
-0.811881 -1.445545 -2.312871 110 79 74 
-0.801980 -1.445545 -2.312871 113 73 71 
-0.800000 -1.460000 -2.336000 110 66 63 
-0.797980 -1.474747 -2.359596 111 61 60 
-0.787879 -1.474747 -2.359596 100 44 45 
-0.785714 -1.489796 -2.383673 92 33 35 
-0.783505 -1.505155 -2.408247 140 86 84 
-0.781250 -1.520833 -2.433333 140 89 86 
-0.770833 -1.520833 -2.433333 136 87 83 
-0.760417 -1.520833 -2.433333 154 105 101 
-0.750000 -1.520833 -2.433333 157 106 102 
-0.747368 -1.536842 -2.458947 122 71 67 
-0.736842 -1.536842 -2.458947 115 64 60 
-0.726316 -1.536842 -2.458947 110 59 55 
-0.715789 -1.536842 -2.458947 127 77 70 
-0.705263 -1.536842 -2.458947 146 93 89 
-0.694737 -1.536842 -2.458947 145 92 88 
-0.691489 -1.553192 -2.485106 124 70 68 
-0.673684 -1.536842 -2.458947 123 67 66 
-0.670213 -1.553192 -2.485106 139 83 82 
-0.659574 -1.553192 -2.485106 156 102 100 
-0.648936 -1.553192 -2.485106 147 93 91 
-0.645161 -1.569893 -2.511828 129 78 75 
-0.634409 -1.569893 -2.511828 118 67 64 
-0.630435 -1.586957 -2.539130 109 53 52 
-0.619565 -1.586957 -2.539130 120 60 60 
-0.608696 -1.586957 -2.539130 152 88 88 
-0.604396 -1.604396 -2.567033 141 77 77 
-0.593407 -1.604396 -2.567033 128 68 67 
-0.576087 -1.586957 -2.539130 143 88 85 
-0.571429 -1.604396 -2.567033 143 96 88 
-0.560440 -1.604396 -2.567033 150 103 95 
-0.549451 -1.604396 -2.567033 148 97 94 
-0.550562 -1.640449 -2.624719 143 83 82 
-0.533333 -1.622222 -2.595556 146 76 76 
-0.522222 -1.622222 -2.595556 110 40 40 
-0.511111 -1.622222 -2.595556 81 19 22 
-0.500000 -1.622222 -2.595556 107 51 60 
-0.488889 -1.622222 -2.595556 179 132 148 
-0.477778 -1.622222 -2.595556 158 117 133 
-0.471910 -1.640449 -2.624719 171 135 149 
-0.460674 -1.640449 -2.624719 185 143 153 
-0.454545 -1.659091 -2.654546 163 106 112 
-0.443182 -1.659091 -2.654546 145 84 83 
-0.436782 -1.678161 -2.685058 168 107 102 
-0.425287 -1.678161 -2.685058 173 114 106 
-0.409091 -1.659091 -2.654546 151 96 91 
-0.397727 -1.659091 -2.654546 163 108 105 
-0.386364 -1.659091 -2.654546 168 108 107 
-0.379310 -1.678161 -2.685058 174 113 112 
-0.372093 -1.697674 -2.716279 179 118 117 
-0.360465 -1.697674 -2.716279 165 105 104 
-0.348837 -1.697674 -2.716279 157 99 97 
-0.337209 -1.697674 -2.716279 164 106 104 
-0.329412 -1.717647 -2.748235 165 107 105 
-0.317647 -1.717647 -2.748235 129 71 69 
-0.309524 -1.738095 -2.780952 116 56 55 
-0.294118 -1.717647 -2.748235 212 152 151 
-0.285714 -1.738095 -2.780952 187 126 125 
-0.273810 -1.738095 -2.780952 142 81 80 
-0.265060 -1.759036 -2.814458 135 75 74 
-0.253012 -1.759036 -2.814458 143 83 82 
-0.240964 -1.759036 -2.814458 173 113 112 
-0.228916 -1.759036 -2.814458 172 114 112 
-0.216867 -1.759036 -2.814458 135 82 78 
-0.204819 -1.759036 -2.814458 135 84 80 
-0.190476 -1.738095 -2.780952 148 98 91 
-0.178571 -1.738095 -2.780952 153 100 94 
-0.168675 -1.759036 -2.814458 138 83 78 
-0.156627 -1.759036 -2.814458 127 72 67 
-0.146341 -1.780488 -2.848781 142 84 80 
-0.134146 -1.780488 -2.848781 150 92 88 
-0.121951 -1.780488 -2.848781 143 85 81 
-0.109756 -1.780488 -2.848781 149 91 87 
-0.097561 -1.780488 -2.848781 143 88 85 
-0.085366 -1.780488 -2.848781 162 107 104 
-0.073171 -1.780488 -2.848781 200 147 143 
-0.061728 -1.802469 -2.883951 187 136 132 
-0.049383 -1.802469 -2.883951 146 95 92 
-0.037500 -1.825000 -2.920000 152 99 95 
-0.024691 -1.802469 -2.883951 147 89 85 
-0.012500 -1.825000 -2.920000 115 56 52 
0.000000 -1.825000 -2.920000 153 92 89 
0.012346 -1.802469 -2.883951 152 88 86 
0.024691 -1.802469 -2.883951 176 115 112 
0.037037 -1.802469 -2.883951 174 115 111 
0.049383 -1.802469 -2.883951 136 81 74 
0.061728 -1.802469 -2.883951 153 100 92 
0.074074 -1.802469 -2.883951 159 106 98 
0.086420 -1.802469 -2.883951 159 104 97 
0.097561 -1.780488 -2.848781 145 86 82 
0.109756 -1.780488 -2.848781 194 133 130 
0.121951 -1.780488 -2.848781 176 112 110 
0.134146 -1.780488 -2.848781 200 136 134 
0.144578 -1.759036 -2.814458 149 89 88 
0.156627 -1.759036 -2.814458 158 100 98 
0.166667 -1.738095 -2.780952 161 106 103 
0.178571 -1.738095 -2.780952 158 105 101 
0.188235 -1.717647 -2.748235 150 99 95 
0.200000 -1.717647 -2.748235 133 84 79 
0.211765 -1.717647 -2.748235 148 101 95 
0.220930 -1.697674 -2.716279 125 80 74 
0.229885 -1.678161 -2.685058 136 93 86 
0.238636 -1.659091 -2.654546 122 82 74 
0.250000 -1.659091 -2.654546 104 61 54 
0.258427 -1.640449 -2.624719 147 102 96 
0.266667 -1.622222 -2.595556 144 97 91 
0.277778 -1.622222 -2.595556 126 81 75 
0.285714 -1.604396 -2.567033 128 88 80 
0.296703 -1.604396 -2.567033 126 94 83 
0.307692 -1.604396 -2.567033 137 115 101 
0.318681 -1.604396 -2.567033 141 130 112 
0.329670 -1.604396 -2.567033 138 135 116 
0.340659 -1.604396 -2.567033 130 132 111 
0.347826 -1.586957 -2.539130 133 135 114 
0.351064 -1.553192 -2.485106 134 136 115 
0.361702 -1.553192 -2.485106 131 133 112 
0.364583 -1.520833 -2.433333 130 132 111 
inf -inf -inf 126 128 107 
6.300000 -14.600000 -23.360001 123 125 104 
5.818182 -13.272727 -21.236364 122 124 103 
0.438424 -0.719212 -1.150739 123 125 104 
0.771429 -1.042857 -1.668571 120 122 101 
0.746575 -1.000000 -1.600000 120 122 101 
-0.821192 -0.973510 -1.547020 18 15 10 
-0.809211 -0.967105 -1.536842 14 11 6 
-0.797386 -0.960784 -1.526797 11 7 4 
-0.790850 -0.960784 -1.526797 13 9 6 
-0.779221 -0.954545 -1.516883 13 9 8 
-0.772727 -0.954545 -1.516883 9 8 6 
-0.766234 -0.954545 -1.516883 9 7 8 
-0.759740 -0.954545 -1.516883 11 10 8 
-0.748387 -0.948387 -1.507097 12 11 9 
-0.741935 -0.948387 -1.507097 11 10 6 
-0.735484 -0.948387 -1.507097 12 11 7 
-0.729032 -0.948387 -1.507097 16 15 10 
-0.722581 -0.948387 -1.507097 16 15 11 
-0.711538 -0.942308 -1.497436 15 14 10 
-0.700637 -0.936306 -1.487898 14 13 9 
-0.694268 -0.936306 -1.487898 11 10 6 
-0.692308 -0.942308 -1.497436 9 8 6 
-0.672956 -0.924528 -1.469182 10 9 7 
-0.666667 -0.924528 -1.469182 14 13 9 
-0.660377 -0.924528 -1.469182 17 16 12 
-0.650000 -0.918750 -1.460000 22 21 17 
-0.643750 -0.918750 -1.460000 28 27 23 
-0.641509 -0.924528 -1.469182 31 28 23 
-0.631250 -0.918750 -1.460000 27 24 19 
-0.625000 -0.918750 -1.460000 22 17 13 
-0.618750 -0.918750 -1.460000 18 15 10 
-0.608696 -0.913043 -1.450932 17 16 12 
-0.610063 -0.924528 -1.469182 15 14 10 
-0.600000 -0.918750 -1.460000 15 11 8 
-0.597484 -0.924528 -1.469182 14 10 7 
-0.587500 -0.918750 -1.460000 17 12 8 
-0.581250 -0.918750 -1.460000 18 13 9 
-0.585987 -0.936306 -1.487898 18 14 11 
-0.583333 -0.942308 -1.497436 15 14 10 
-0.580645 -0.948387 -1.507097 18 19 14 
-0.577922 -0.954545 -1.516883 27 28 23 
-0.834951 -1.427184 -2.267961 69 69 61 
-0.825243 -1.427184 -2.267961 81 77 68 
-0.823529 -1.441176 -2.290196 91 84 74 
-0.821782 -1.455446 -2.312871 96 79 71 
-0.820000 -1.470000 -2.336000 89 60 54 
-0.810000 -1.470000 -2.336000 90 50 48 
-0.800000 -1.470000 -2.336000 112 68 65 
-0.797980 -1.484848 -2.359596 141 93 91 
-0.787879 -1.484848 -2.359596 110 56 56 
-0.785714 -1.500000 -2.383673 93 37 38 
-0.783505 -1.515464 -2.408247 145 94 91 
-0.781250 -1.531250 -2.433333 160 111 107 
-0.762887 -1.515464 -2.408247 129 80 76 
-0.760417 -1.531250 -2.433333 142 93 89 
-0.750000 -1.531250 -2.433333 138 85 81 
-0.747368 -1.547368 -2.458947 136 83 79 
-0.736842 -1.547368 -2.458947 109 58 54 
-0.726316 -1.547368 -2.458947 97 46 42 
-0.715789 -1.547368 -2.458947 150 101 94 
-0.697917 -1.531250 -2.433333 159 108 104 
-0.687500 -1.531250 -2.433333 147 93 91 
-0.684211 -1.547368 -2.458947 133 79 77 
-0.673684 -1.547368 -2.458947 122 64 63 
-0.663158 -1.547368 -2.458947 156 98 97 
-0.652632 -1.547368 -2.458947 141 85 84 
-0.648936 -1.563830 -2.485106 144 90 88 
-0.645161 -1.580645 -2.511828 162 111 108 
-0.634409 -1.580645 -2.511828 125 74 71 
-0.623656 -1.580645 -2.511828 127 71 70 
-0.619565 -1.597826 -2.539130 157 97 97 
-0.608696 -1.597826 -2.539130 146 82 82 
-0.597826 -1.597826 -2.539130 140 76 76 
-0.586957 -1.597826 -2.539130 92 31 30 
-0.576087 -1.597826 -2.539130 131 76 73 
-0.565217 -1.597826 -2.539130 156 109 101 
-0.560440 -1.615385 -2.567033 143 99 90 
-0.549451 -1.615385 -2.567033 149 100 95 
-0.544444 -1.633333 -2.595556 131 73 71 
-0.533333 -1.633333 -2.595556 138 70 67 
-0.522222 -1.633333 -2.595556 104 33 31 
-0.511111 -1.633333 -2.595556 108 42 44 
-0.500000 -1.633333 -2.595556 85 24 32 
-0.488889 -1.633333 -2.595556 116 63 79 
-0.472527 -1.615385 -2.567033 199 155 172 
-0.466667 -1.633333 -2.595556 205 167 182 
-0.455556 -1.633333 -2.595556 161 119 129 
-0.449438 -1.651685 -2.624719 142 85 91 
-0.443182 -1.670455 -2.654546 135 74 73 
-0.431818 -1.670455 -2.654546 167 106 101 
-0.420455 -1.670455 -2.654546 168 109 101 
-0.404494 -1.651685 -2.624719 165 112 106 
-0.397727 -1.670455 -2.654546 142 89 85 
-0.382022 -1.651685 -2.624719 129 69 68 
-0.375000 -1.670455 -2.654546 154 93 92 
-0.367816 -1.689655 -2.685058 151 91 90 
-0.360465 -1.709302 -2.716279 150 90 89 
-0.348837 -1.709302 -2.716279 144 86 84 
-0.337209 -1.709302 -2.716279 153 95 93 
-0.329412 -1.729412 -2.748235 152 94 92 
-0.317647 -1.729412 -2.748235 136 78 76 
-0.309524 -1.750000 -2.780952 124 64 63 
-0.294118 -1.729412 -2.748235 151 91 90 
-0.285714 -1.750000 -2.780952 129 68 67 
-0.273810 -1.750000 -2.780952 159 98 97 
-0.265060 -1.771084 -2.814458 172 112 111 
-0.256098 -1.792683 -2.848781 126 66 65 
-0.240964 -1.771084 -2.814458 126 66 65 
-0.228916 -1.771084 -2.814458 151 93 91 
-0.216867 -1.771084 -2.814458 152 101 97 
-0.204819 -1.771084 -2.814458 119 70 65 
-0.192771 -1.771084 -2.814458 133 83 76 
-0.180723 -1.771084 -2.814458 159 109 102 
-0.170732 -1.792683 -2.848781 153 98 93 
-0.158537 -1.792683 -2.848781 141 86 81 
-0.146341 -1.792683 -2.848781 167 109 105 
-0.134146 -1.792683 -2.848781 179 121 117 
-0.123457 -1.814815 -2.883951 164 106 102 
-0.108434 -1.771084 -2.814458 147 89 85 
-0.097561 -1.792683 -2.848781 145 90 87 
-0.085366 -1.792683 -2.848781 148 95 91 
-0.073171 -1.792683 -2.848781 131 78 74 
-0.061728 -1.814815 -2.883951 170 119 115 
-0.048780 -1.792683 -2.848781 166 117 113 
-0.037500 -1.837500 -2.920000 180 129 125 
-0.024691 -1.814815 -2.883951 183 130 126 
-0.012500 -1.837500 -2.920000 133 78 73 
0.000000 -1.814815 -2.883951 206 147 143 
0.012195 -1.792683 -2.848781 190 129 126 
0.024390 -1.792683 -2.848781 184 123 120 
0.036585 -1.792683 -2.848781 141 82 78 
0.048780 -1.792683 -2.848781 140 85 78 
0.060976 -1.792683 -2.848781 199 146 138 
0.074074 -1.814815 -2.883951 184 131 123 
0.085366 -1.792683 -2.848781 149 94 87 
0.096386 -1.771084 -2.814458 169 108 105 
0.109756 -1.792683 -2.848781 174 110 108 
0.121951 -1.792683 -2.848781 176 111 109 
0.132530 -1.771084 -2.814458 162 98 96 
0.144578 -1.771084 -2.814458 136 76 75 
0.154762 -1.750000 -2.780952 175 117 115 
0.166667 -1.750000 -2.780952 171 113 111 
0.176471 -1.729412 -2.748235 121 66 63 
0.188235 -1.729412 -2.748235 170 117 113 
0.200000 -1.729412 -2.748235 152 101 97 
0.211765 -1.729412 -2.748235 148 101 95 
0.220930 -1.709302 -2.716279 127 82 76 
0.229885 -1.689655 -2.685058 122 82 74 
0.238636 -1.670455 -2.654546 125 85 77 
0.250000 -1.670455 -2.654546 157 114 107 
0.261364 -1.670455 -2.654546 119 76 69 
0.269663 -1.651685 -2.624719 121 76 70 
0.277778 -1.633333 -2.595556 110 67 60 
0.288889 -1.633333 -2.595556 103 66 57 
0.296703 -1.615385 -2.567033 136 108 96 
0.307692 -1.615385 -2.567033 151 134 118 
0.315217 -1.597826 -2.539130 133 125 106 
0.329670 -1.615385 -2.567033 134 131 112 
0.340659 -1.615385 -2.567033 125 127 106 
0.347826 -1.597826 -2.539130 127 129 108 
0.351064 -1.563830 -2.485106 130 132 111 
0.361702 -1.563830 -2.485106 131 133 112 
0.360825 -1.515464 -2.408247 131 133 112 
inf -inf -inf 128 130 109 
inf -inf -inf 127 129 108 
6.300000 -14.700000 -23.360001 125 127 106 
5.818182 -13.363636 -21.236364 124 126 105 
0.474747 -0.742424 -1.179798 122 124 103 
-0.826667 -0.986667 -1.557333 16 11 7 
-0.814570 -0.980132 -1.547020 15 10 6 
-0.802632 -0.973684 -1.536842 15 10 7 
-0.796053 -0.973684 -1.536842 13 8 5 
-0.784314 -0.967320 -1.526797 11 5 5 
-0.777778 -0.967320 -1.526797 11 7 6 
-0.771242 -0.967320 -1.526797 13 9 8 
-0.764706 -0.967320 -1.526797 13 9 8 
-0.753247 -0.961039 -1.516883 13 9 8 
-0.746753 -0.961039 -1.516883 12 11 7 
-0.740260 -0.961039 -1.516883 11 10 6 
-0.729032 -0.954839 -1.507097 12 11 7 
-0.727273 -0.961039 -1.516883 13 12 8 
-0.716129 -0.954839 -1.507097 12 11 7 
-0.705128 -0.948718 -1.497436 11 10 8 
-0.694268 -0.942675 -1.487898 10 9 7 
-0.687898 -0.942675 -1.487898 10 9 7 
-0.672956 -0.930818 -1.469182 11 10 8 
-0.666667 -0.930818 -1.469182 13 12 8 
-0.656250 -0.925000 -1.460000 13 12 8 
-0.650000 -0.925000 -1.460000 17 16 12 
-0.639752 -0.919255 -1.450932 24 23 19 
-0.637500 -0.925000 -1.460000 28 24 21 
-0.627329 -0.919255 -1.450932 28 24 21 
-0.617284 -0.913580 -1.441975 27 24 19 
-0.611111 -0.913580 -1.441975 23 20 15 
-0.601227 -0.907975 -1.433129 17 16 12 
-0.602484 -0.919255 -1.450932 14 13 9 
-0.596273 -0.919255 -1.450932 14 11 6 
-0.593750 -0.925000 -1.460000 14 9 5 
-0.583851 -0.919255 -1.450932 19 11 8 
-0.577640 -0.919255 -1.450932 21 16 12 
-0.585987 -0.942675 -1.487898 19 15 12 
-0.579618 -0.942675 -1.487898 15 14 10 
-0.576923 -0.948718 -1.497436 16 17 12 
-0.574194 -0.954839 -1.507097 29 31 26 
-0.826923 -1.423077 -2.246154 73 73 65 
-0.825243 -1.436893 -2.267961 88 85 76 
-0.823529 -1.450980 -2.290196 102 98 87 
-0.821782 -1.465347 -2.312871 98 85 76 
-0.820000 -1.480000 -2.336000 93 64 58 
-0.810000 -1.480000 -2.336000 106 69 63 
-0.800000 -1.480000 -2.336000 108 64 61 
-0.797980 -1.494949 -2.359596 119 71 69 
-0.787879 -1.494949 -2.359596 132 82 81 
-0.785714 -1.510204 -2.383673 116 65 64 
-0.783505 -1.525773 -2.408247 139 90 86 
-0.781250 -1.541667 -2.433333 131 82 78 
-0.762887 -1.525773 -2.408247 120 71 67 
-0.760417 -1.541667 -2.433333 128 77 74 
-0.750000 -1.541667 -2.433333 151 96 93 
-0.747368 -1.557895 -2.458947 153 98 95 
-0.736842 -1.557895 -2.458947 134 79 76 
-0.718750 -1.541667 -2.433333 129 78 74 
-0.715789 -1.557895 -2.458947 139 90 85 
-0.697917 -1.541667 -2.433333 160 111 106 
-0.687500 -1.541667 -2.433333 181 130 127 
-0.684211 -1.557895 -2.458947 146 92 90 
-0.673684 -1.557895 -2.458947 153 95 94 
-0.663158 -1.557895 -2.458947 167 109 108 
-0.652632 -1.557895 -2.458947 143 87 86 
-0.642105 -1.557895 -2.458947 146 92 90 
-0.638298 -1.574468 -2.485106 173 122 119 
-0.627660 -1.574468 -2.485106 138 87 84 
-0.623656 -1.591398 -2.511828 137 81 80 
-0.619565 -1.608696 -2.539130 151 93 92 
-0.608696 -1.608696 -2.539130 110 46 46 
-0.597826 -1.608696 -2.539130 136 72 72 
-0.586957 -1.608696 -2.539130 113 52 51 
-0.576087 -1.608696 -2.539130 138 83 80 
-0.565217 -1.608696 -2.539130 138 89 82 
-0.554348 -1.608696 -2.539130 166 122 113 
-0.543478 -1.608696 -2.539130 144 97 91 
-0.538462 -1.626374 -2.567033 157 104 98 
-0.527473 -1.626374 -2.567033 157 92 86 
-0.516484 -1.626374 -2.567033 102 31 27 
-0.505495 -1.626374 -2.567033 120 50 52 
-0.494505 -1.626374 -2.567033 89 24 30 
-0.483516 -1.626374 -2.567033 99 41 56 
-0.472527 -1.626374 -2.567033 150 99 118 
-0.456522 -1.608696 -2.539130 172 129 146 
-0.450549 -1.626374 -2.567033 173 127 138 
-0.444444 -1.644444 -2.595556 138 81 87 
-0.433333 -1.644444 -2.595556 135 71 71 
-0.426966 -1.662921 -2.624719 150 89 84 
-0.415730 -1.662921 -2.624719 159 102 95 
-0.400000 -1.644444 -2.595556 157 107 100 
-0.393258 -1.662921 -2.624719 187 136 132 
-0.382022 -1.662921 -2.624719 167 109 105 
-0.370787 -1.662921 -2.624719 138 77 74 
-0.363636 -1.681818 -2.654546 148 88 87 
-0.356322 -1.701149 -2.685058 160 100 99 
-0.344828 -1.701149 -2.685058 112 54 52 
-0.337209 -1.720930 -2.716279 161 103 101 
-0.325581 -1.720930 -2.716279 149 91 90 
-0.313953 -1.720930 -2.716279 163 105 104 
-0.305882 -1.741176 -2.748235 153 93 93 
-0.294118 -1.741176 -2.748235 163 103 103 
-0.285714 -1.761905 -2.780952 139 78 77 
-0.273810 -1.761905 -2.780952 145 84 83 
-0.265060 -1.783133 -2.814458 131 71 70 
-0.256098 -1.804878 -2.848781 150 90 89 
-0.240964 -1.783133 -2.814458 152 92 91 
-0.228916 -1.783133 -2.814458 147 89 87 
-0.216867 -1.783133 -2.814458 124 74 67 
-0.204819 -1.783133 -2.814458 102 53 46 
-0.192771 -1.783133 -2.814458 199 149 142 
-0.180723 -1.783133 -2.814458 164 114 107 
-0.170732 -1.804878 -2.848781 163 108 103 
-0.158537 -1.804878 -2.848781 161 106 101 
-0.146341 -1.804878 -2.848781 157 99 95 
-0.134146 -1.804878 -2.848781 175 117 113 
-0.123457 -1.827160 -2.883951 149 91 87 
-0.108434 -1.783133 -2.814458 199 141 137 
-0.097561 -1.804878 -2.848781 142 87 84 
-0.084337 -1.783133 -2.814458 163 110 106 
-0.072289 -1.783133 -2.814458 140 87 83 
-0.060976 -1.804878 -2.848781 165 114 110 
-0.048780 -1.804878 -2.848781 183 134 130 
-0.037037 -1.827160 -2.883951 186 137 132 
-0.024390 -1.804878 -2.848781 183 136 130 
-0.012346 -1.827160 -2.883951 159 110 103 
0.000000 -1.827160 -2.883951 205 150 145 
0.012195 -1.804878 -2.848781 190 132 128 
0.024390 -1.804878 -2.848781 152 91 88 
0.036585 -1.804878 -2.848781 165 106 102 
0.048780 -1.804878 -2.848781 133 74 70 
0.060241 -1.783133 -2.814458 197 139 135 
0.073171 -1.804878 -2.848781 180 121 117 
0.085366 -1.804878 -2.848781 123 62 59 
0.096386 -1.783133 -2.814458 160 96 94 
0.109756 -1.804878 -2.848781 177 112 110 
0.120482 -1.783133 -2.814458 145 79 80 
0.132530 -1.783133 -2.814458 144 83 82 
0.142857 -1.761905 -2.780952 161 103 101 
0.154762 -1.761905 -2.780952 141 86 83 
0.164706 -1.741176 -2.748235 175 117 115 
0.176471 -1.741176 -2.748235 156 101 98 
0.188235 -1.741176 -2.748235 133 78 75 
0.200000 -1.741176 -2.748235 170 117 113 
0.209302 -1.720930 -2.716279 135 86 81 
0.220930 -1.720930 -2.716279 125 80 74 
0.229885 -1.701149 -2.685058 131 91 83 
0.238636 -1.681818 -2.654546 117 77 69 
0.250000 -1.681818 -2.654546 142 99 92 
0.261364 -1.681818 -2.654546 126 83 76 
0.269663 -1.662921 -2.624719 130 87 80 
0.277778 -1.644444 -2.595556 136 98 89 
0.288889 -1.644444 -2.595556 113 81 70 
0.296703 -1.626374 -2.567033 137 115 101 
0.307692 -1.626374 -2.567033 142 129 112 
0.318681 -1.626374 -2.567033 133 128 108 
0.333333 -1.644444 -2.595556 131 130 110 
0.340659 -1.626374 -2.567033 131 133 112 
0.347826 -1.608696 -2.539130 132 134 113 
0.354839 -1.591398 -2.511828 132 134 113 
0.365591 -1.591398 -2.511828 131 133 112 
6.200000 -14.800000 -23.360001 125 127 106 
5.250000 -12.333333 -19.466667 125 127 106 
4.923077 -11.384615 -17.969231 124 126 105 
4.642857 -10.571428 -16.685715 123 125 104 
0.569231 -1.138462 -1.796923 123 125 104 
-0.826667 -0.993333 -1.557333 17 12 8 
-0.814570 -0.986755 -1.547020 16 11 7 
-0.802632 -0.980263 -1.536842 16 8 6 
-0.796053 -0.980263 -1.536842 15 7 5 
-0.789474 -0.980263 -1.536842 12 6 6 
-0.782895 -0.980263 -1.536842 14 8 8 
-0.776316 -0.980263 -1.536842 16 10 10 
-0.769737 -0.980263 -1.536842 15 11 8 
-0.758170 -0.973856 -1.526797 15 11 8 
-0.751634 -0.973856 -1.526797 14 10 7 
-0.745098 -0.973856 -1.526797 12 11 7 
-0.733766 -0.967532 -1.516883 12 11 7 
-0.727273 -0.967532 -1.516883 11 10 6 
-0.720779 -0.967532 -1.516883 11 10 6 
-0.705128 -0.955128 -1.497436 10 9 7 
-0.694268 -0.949045 -1.487898 11 10 8 
-0.687898 -0.949045 -1.487898 11 10 8 
-0.677215 -0.943038 -1.478481 12 11 9 
-0.670886 -0.943038 -1.478481 13 12 8 
-0.660377 -0.937107 -1.469182 12 11 7 
-0.650000 -0.931250 -1.460000 15 14 10 
-0.639752 -0.925466 -1.450932 21 20 16 
-0.633540 -0.925466 -1.450932 27 23 20 
-0.623457 -0.919753 -1.441975 30 26 23 
-0.617284 -0.919753 -1.441975 30 27 22 
-0.607362 -0.914110 -1.433129 25 24 19 
-0.597561 -0.908537 -1.424390 19 18 14 
-0.598765 -0.919753 -1.441975 16 15 11 
-0.592593 -0.919753 -1.441975 16 11 7 
-0.590062 -0.925466 -1.450932 15 10 6 
-0.580247 -0.919753 -1.441975 19 11 8 
-0.574074 -0.919753 -1.441975 21 13 10 
-0.582278 -0.943038 -1.478481 18 14 11 
-0.575949 -0.943038 -1.478481 16 15 11 
-0.573248 -0.949045 -1.487898 20 21 16 
-0.570513 -0.955128 -1.497436 32 34 29 
-0.825243 -1.446602 -2.267961 81 81 73 
-0.831683 -1.475248 -2.312871 102 99 90 
-0.821782 -1.475248 -2.312871 111 101 91 
-0.820000 -1.490000 -2.336000 101 76 69 
-0.810000 -1.490000 -2.336000 106 71 65 
-0.800000 -1.490000 -2.336000 110 66 63 
-0.797980 -1.505051 -2.359596 111 66 63 
-0.787879 -1.505051 -2.359596 119 71 69 
-0.785714 -1.520408 -2.383673 107 59 57 
-0.783505 -1.536083 -2.408247 120 72 68 
-0.781250 -1.552083 -2.433333 133 85 81 
-0.770833 -1.552083 -2.433333 137 88 84 
-0.760417 -1.552083 -2.433333 153 102 99 
-0.750000 -1.552083 -2.433333 171 116 113 
-0.747368 -1.568421 -2.458947 159 101 99 
-0.736842 -1.568421 -2.458947 150 92 90 
-0.726316 -1.568421 -2.458947 124 71 67 
-0.715789 -1.568421 -2.458947 109 62 56 
-0.697917 -1.552083 -2.433333 150 103 97 
-0.687500 -1.552083 -2.433333 160 109 106 
-0.684211 -1.568421 -2.458947 145 91 89 
-0.673684 -1.568421 -2.458947 133 75 74 
-0.663158 -1.568421 -2.458947 136 78 77 
-0.652632 -1.568421 -2.458947 158 100 99 
-0.642105 -1.568421 -2.458947 160 104 103 
-0.638298 -1.585106 -2.485106 125 71 69 
-0.627660 -1.585106 -2.485106 144 90 88 
-0.623656 -1.602151 -2.511828 127 71 70 
-0.619565 -1.619565 -2.539130 170 112 111 
-0.608696 -1.619565 -2.539130 150 89 88 
-0.591398 -1.602151 -2.511828 156 92 92 
-0.580645 -1.602151 -2.511828 143 83 82 
-0.569892 -1.602151 -2.511828 128 73 70 
-0.559140 -1.602151 -2.511828 137 88 81 
-0.554348 -1.619565 -2.539130 171 124 116 
-0.543478 -1.619565 -2.539130 135 90 84 
-0.532609 -1.619565 -2.539130 150 100 93 
-0.521739 -1.619565 -2.539130 144 81 74 
-0.510870 -1.619565 -2.539130 104 35 30 
-0.500000 -1.619565 -2.539130 94 24 24 
-0.489130 -1.619565 -2.539130 104 35 40 
-0.483516 -1.637363 -2.567033 71 7 23 
-0.467391 -1.619565 -2.539130 106 49 68 
-0.456522 -1.619565 -2.539130 122 75 91 
-0.450549 -1.637363 -2.567033 176 128 140 
-0.439560 -1.637363 -2.567033 170 110 118 
-0.433333 -1.655556 -2.595556 142 78 79 
-0.426966 -1.674157 -2.624719 149 88 85 
-0.411111 -1.655556 -2.595556 158 101 94 
-0.400000 -1.655556 -2.595556 169 119 112 
-0.393258 -1.674157 -2.624719 153 102 98 
-0.382022 -1.674157 -2.624719 178 120 116 
-0.370787 -1.674157 -2.624719 182 121 118 
-0.363636 -1.693182 -2.654546 133 73 72 
-0.356322 -1.712644 -2.685058 137 77 76 
-0.344828 -1.712644 -2.685058 162 104 102 
-0.333333 -1.712644 -2.685058 159 101 99 
-0.325581 -1.732558 -2.716279 118 60 59 
-0.313953 -1.732558 -2.716279 180 122 121 
-0.305882 -1.752941 -2.748235 152 92 92 
-0.294118 -1.752941 -2.748235 155 95 95 
-0.285714 -1.773810 -2.780952 236 175 174 
-0.273810 -1.773810 -2.780952 182 121 120 
-0.265060 -1.795181 -2.814458 119 59 58 
-0.256098 -1.817073 -2.848781 116 56 55 
-0.240964 -1.795181 -2.814458 149 89 88 
-0.228916 -1.795181 -2.814458 153 95 93 
-0.216867 -1.795181 -2.814458 142 89 83 
-0.204819 -1.795181 -2.814458 110 60 53 
-0.190476 -1.773810 -2.780952 151 101 94 
-0.180723 -1.795181 -2.814458 169 116 110 
-0.170732 -1.817073 -2.848781 148 93 88 
-0.156627 -1.795181 -2.814458 150 95 90 
-0.146341 -1.817073 -2.848781 141 83 79 
-0.134146 -1.817073 -2.848781 132 74 70 
-0.121951 -1.817073 -2.848781 153 95 91 
-0.108434 -1.795181 -2.814458 153 95 91 
-0.097561 -1.817073 -2.848781 146 91 88 
-0.084337 -1.795181 -2.814458 138 83 80 
-0.072289 -1.795181 -2.814458 135 82 78 
-0.060976 -1.817073 -2.848781 166 115 111 
-0.048780 -1.817073 -2.848781 189 138 135 
-0.037037 -1.839506 -2.883951 175 126 121 
-0.024390 -1.817073 -2.848781 181 137 128 
-0.012500 -1.862500 -2.920000 175 128 120 
0.000000 -1.817073 -2.848781 145 95 88 
0.012048 -1.795181 -2.814458 147 92 87 
0.024096 -1.795181 -2.814458 163 104 100 
0.036145 -1.795181 -2.814458 180 121 117 
0.048193 -1.795181 -2.814458 146 87 83 
0.060241 -1.795181 -2.814458 161 102 98 
0.073171 -1.817073 -2.848781 153 92 89 
0.084337 -1.795181 -2.814458 157 93 91 
0.096386 -1.795181 -2.814458 178 113 111 
0.108434 -1.795181 -2.814458 171 106 104 
0.120482 -1.795181 -2.814458 181 117 117 
0.130952 -1.773810 -2.780952 163 102 101 
0.142857 -1.773810 -2.780952 161 103 101 
0.154762 -1.773810 -2.780952 113 58 55 
0.164706 -1.752941 -2.748235 151 96 93 
0.176471 -1.752941 -2.748235 143 88 85 
0.188235 -1.752941 -2.748235 130 75 72 
0.200000 -1.752941 -2.748235 168 115 111 
0.209302 -1.732558 -2.716279 137 88 83 
0.220930 -1.732558 -2.716279 124 79 73 
0.232558 -1.732558 -2.716279 137 97 89 
0.241379 -1.712644 -2.685058 127 87 79 
0.250000 -1.693182 -2.654546 133 90 83 
0.261364 -1.693182 -2.654546 150 107 100 
0.269663 -1.674157 -2.624719 138 95 88 
0.280899 -1.674157 -2.624719 128 91 82 
0.288889 -1.655556 -2.595556 119 93 80 
0.296703 -1.637363 -2.567033 134 117 101 
0.307692 -1.637363 -2.567033 146 139 120 
0.315217 -1.619565 -2.539130 134 133 112 
0.333333 -1.655556 -2.595556 129 128 108 
0.340659 -1.637363 -2.567033 129 131 110 
0.347826 -1.619565 -2.539130 131 133 112 
0.354839 -1.602151 -2.511828 130 132 111 
0.365591 -1.602151 -2.511828 130 132 111 
4.133333 -9.933333 -15.573334 124 126 105 
4.500000 -10.642858 -16.685715 124 126 105 
4.266667 -9.933333 -15.573334 124 126 105 
3.823529 -8.764706 -13.741177 123 125 104 
-0.826667 -1.000000 -1.557333 16 11 8 
-0.814570 -0.993378 -1.547020 17 9 7 
-0.802632 -0.986842 -1.536842 15 7 5 
-0.801324 -0.993378 -1.547020 14 6 4 
-0.794702 -0.993378 -1.547020 15 7 5 
-0.788079 -0.993378 -1.547020 16 11 8 
-0.781457 -0.993378 -1.547020 18 13 10 
-0.774834 -0.993378 -1.547020 18 13 10 
-0.763158 -0.986842 -1.536842 17 12 9 
-0.756579 -0.986842 -1.536842 16 12 9 
-0.745098 -0.980392 -1.526797 12 11 7 
-0.738562 -0.980392 -1.526797 11 10 8 
-0.732026 -0.980392 -1.526797 10 9 7 
-0.720779 -0.974026 -1.516883 9 8 6 
-0.709677 -0.967742 -1.507097 10 9 7 
-0.698718 -0.961538 -1.497436 12 11 9 
-0.692308 -0.961538 -1.497436 13 12 10 
-0.677215 -0.949367 -1.478481 14 13 11 
-0.670886 -0.949367 -1.478481 13 12 8 
-0.664557 -0.949367 -1.478481 12 11 7 
-0.650000 -0.937500 -1.460000 13 12 8 
-0.639752 -0.931677 -1.450932 17 16 12 
-0.637500 -0.937500 -1.460000 22 21 17 
-0.627329 -0.931677 -1.450932 30 29 25 
-0.617284 -0.925926 -1.441975 34 33 29 
-0.607362 -0.920245 -1.433129 31 30 26 
-0.597561 -0.914634 -1.424390 25 24 20 
-0.598765 -0.925926 -1.441975 19 18 14 
-0.592593 -0.925926 -1.441975 18 13 10 
-0.590062 -0.931677 -1.450932 19 11 9 
-0.580247 -0.925926 -1.441975 21 11 9 
-0.574074 -0.925926 -1.441975 20 12 9 
-0.578616 -0.943396 -1.469182 18 14 11 
-0.575949 -0.949367 -1.478481 16 17 12 
-0.569620 -0.949367 -1.478481 16 18 15 
-0.574194 -0.967742 -1.507097 30 35 31 
-0.825243 -1.456311 -2.267961 73 74 66 
-0.823529 -1.470588 -2.290196 92 92 82 
-0.821782 -1.485149 -2.312871 113 106 96 
